ply
format ascii 1.0
comment created by gply, a Houdini tool.
comment converted from .[b]geo
comment for more information about Houdini, try:
comment www.sidefx.com
element vertex 1431
property float x
property float y
property float z
element face 0
property list uchar int vertex_indices
end_header
-0.100000001 -6.4000001 -2.10000014 
-0.100000001 -6.30000019 -2.20000005 
-0.100000001 -6.30000019 -2.10000014 
-0.200000003 -6.4000001 -2 
-0.200000003 -6.4000001 -1.89999998 
-0.200000003 -6.30000019 -2 
-0.200000003 -6.30000019 -1.89999998 
-0.100000001 -6.4000001 -2 
-0.100000001 -6.4000001 -1.89999998 
-0.100000001 -6.30000019 -2 
-0.100000001 -6.30000019 -1.89999998 
-0.200000003 -6.4000001 -1.80000007 
-0.200000003 -6.4000001 -1.70000005 
-0.200000003 -6.30000019 -1.80000007 
-0.200000003 -6.30000019 -1.70000005 
-0.100000001 -6.4000001 -1.80000007 
-0.100000001 -6.4000001 -1.70000005 
-0.100000001 -6.30000019 -1.80000007 
-0.100000001 -6.30000019 -1.70000005 
-0.200000003 -6.20000029 -3.20000005 
-0.200000003 -6.20000029 -3.10000014 
-0.200000003 -6.0999999 -3.10000014 
-0.100000001 -6.20000029 -3.20000005 
-0.100000001 -6.20000029 -3.10000014 
-0.100000001 -6.0999999 -3.10000014 
-0.200000003 -6.20000029 -3 
-0.200000003 -6.20000029 -2.9000001 
-0.200000003 -6.0999999 -3 
-0.200000003 -6.0999999 -2.9000001 
-0.100000001 -6.20000029 -3 
-0.100000001 -6.20000029 -2.9000001 
-0.100000001 -6.0999999 -3 
-0.100000001 -6.0999999 -2.9000001 
-0.200000003 -6.20000029 -2.79999995 
-0.200000003 -6.20000029 -2.70000005 
-0.200000003 -6.0999999 -2.79999995 
-0.200000003 -6.0999999 -2.70000005 
-0.100000001 -6.20000029 -2.79999995 
-0.100000001 -6.20000029 -2.70000005 
-0.100000001 -6.0999999 -2.79999995 
-0.100000001 -6.0999999 -2.70000005 
-0.200000003 -6.20000029 -2.60000014 
-0.200000003 -6.20000029 -2.5 
-0.200000003 -6.0999999 -2.60000014 
-0.200000003 -6.0999999 -2.5 
-0.100000001 -6.20000029 -2.60000014 
-0.100000001 -6.20000029 -2.5 
-0.100000001 -6.0999999 -2.60000014 
-0.100000001 -6.0999999 -2.5 
-0.200000003 -6.20000029 -2.4000001 
-0.200000003 -6.20000029 -2.29999995 
-0.200000003 -6.0999999 -2.4000001 
-0.200000003 -6.0999999 -2.29999995 
-0.100000001 -6.20000029 -2.4000001 
-0.100000001 -6.20000029 -2.29999995 
-0.100000001 -6.0999999 -2.4000001 
-0.100000001 -6.0999999 -2.29999995 
-0.200000003 -6.20000029 -2.20000005 
-0.200000003 -6.20000029 -2.10000014 
-0.200000003 -6.0999999 -2.20000005 
-0.200000003 -6.0999999 -2.10000014 
-0.100000001 -6.20000029 -2.20000005 
-0.100000001 -6.20000029 -2.10000014 
-0.100000001 -6.0999999 -2.20000005 
-0.100000001 -6.0999999 -2.10000014 
-0.200000003 -6.20000029 -2 
-0.200000003 -6.20000029 -1.89999998 
-0.200000003 -6.0999999 -2 
-0.200000003 -6.0999999 -1.89999998 
-0.100000001 -6.20000029 -2 
-0.100000001 -6.20000029 -1.89999998 
-0.100000001 -6.0999999 -2 
-0.100000001 -6.0999999 -1.89999998 
-0.200000003 -6.20000029 -1.80000007 
-0.200000003 -6.20000029 -1.70000005 
-0.200000003 -6.0999999 -1.80000007 
-0.200000003 -6.0999999 -1.70000005 
-0.100000001 -6.20000029 -1.80000007 
-0.100000001 -6.20000029 -1.70000005 
-0.100000001 -6.0999999 -1.80000007 
-0.100000001 -6.0999999 -1.70000005 
-0.200000003 -6 -3 
-0.200000003 -6 -2.9000001 
-0.200000003 -5.9000001 -2.9000001 
-0.100000001 -6 -3 
-0.100000001 -6 -2.9000001 
-0.100000001 -5.9000001 -2.9000001 
-0.200000003 -6 -2.79999995 
-0.200000003 -6 -2.70000005 
-0.200000003 -5.9000001 -2.79999995 
-0.200000003 -5.9000001 -2.70000005 
-0.100000001 -6 -2.79999995 
-0.100000001 -6 -2.70000005 
-0.100000001 -5.9000001 -2.79999995 
-0.100000001 -5.9000001 -2.70000005 
-0.200000003 -6 -2.60000014 
-0.200000003 -6 -2.5 
-0.200000003 -5.9000001 -2.60000014 
-0.200000003 -5.9000001 -2.5 
-0.100000001 -6 -2.60000014 
-0.100000001 -6 -2.5 
-0.100000001 -5.9000001 -2.60000014 
-0.100000001 -5.9000001 -2.5 
-0.200000003 -6 -2.4000001 
-0.200000003 -6 -2.29999995 
-0.200000003 -5.9000001 -2.4000001 
-0.200000003 -5.9000001 -2.29999995 
-0.100000001 -6 -2.4000001 
-0.100000001 -6 -2.29999995 
-0.100000001 -5.9000001 -2.4000001 
-0.100000001 -5.9000001 -2.29999995 
-0.200000003 -6 -2.20000005 
-0.200000003 -6 -2.10000014 
-0.200000003 -5.9000001 -2.20000005 
-0.200000003 -5.9000001 -2.10000014 
-0.100000001 -6 -2.20000005 
-0.100000001 -6 -2.10000014 
-0.100000001 -5.9000001 -2.20000005 
-0.100000001 -5.9000001 -2.10000014 
-0.200000003 -6 -2 
-0.200000003 -6 -1.89999998 
-0.200000003 -5.9000001 -2 
-0.200000003 -5.9000001 -1.89999998 
-0.100000001 -6 -2 
-0.100000001 -6 -1.89999998 
-0.100000001 -5.9000001 -2 
-0.100000001 -5.9000001 -1.89999998 
-0.200000003 -6 -1.80000007 
-0.200000003 -6 -1.70000005 
-0.200000003 -5.9000001 -1.80000007 
-0.200000003 -5.9000001 -1.70000005 
-0.100000001 -6 -1.80000007 
-0.100000001 -6 -1.70000005 
-0.100000001 -5.9000001 -1.80000007 
-0.100000001 -5.9000001 -1.70000005 
-0.200000003 -5.80000019 -2.70000005 
-0.100000001 -5.80000019 -2.70000005 
-0.200000003 -5.80000019 -2.60000014 
-0.200000003 -5.80000019 -2.5 
-0.200000003 -5.70000029 -2.5 
-0.100000001 -5.80000019 -2.60000014 
-0.100000001 -5.80000019 -2.5 
-0.100000001 -5.70000029 -2.5 
-0.200000003 -5.80000019 -2.4000001 
-0.200000003 -5.80000019 -2.29999995 
-0.200000003 -5.70000029 -2.4000001 
-0.200000003 -5.70000029 -2.29999995 
-0.100000001 -5.80000019 -2.4000001 
-0.100000001 -5.80000019 -2.29999995 
-0.100000001 -5.70000029 -2.4000001 
-0.100000001 -5.70000029 -2.29999995 
-0.200000003 -5.80000019 -2.20000005 
-0.200000003 -5.80000019 -2.10000014 
-0.200000003 -5.70000029 -2.20000005 
-0.200000003 -5.70000029 -2.10000014 
-0.100000001 -5.80000019 -2.20000005 
-0.100000001 -5.80000019 -2.10000014 
-0.100000001 -5.70000029 -2.20000005 
-0.100000001 -5.70000029 -2.10000014 
-0.200000003 -5.80000019 -2 
-0.200000003 -5.80000019 -1.89999998 
-0.200000003 -5.70000029 -2 
-0.200000003 -5.70000029 -1.89999998 
-0.100000001 -5.80000019 -2 
-0.100000001 -5.80000019 -1.89999998 
-0.100000001 -5.70000029 -2 
-0.100000001 -5.70000029 -1.89999998 
-0.200000003 -5.80000019 -1.80000007 
-0.200000003 -5.80000019 -1.70000005 
-0.200000003 -5.70000029 -1.80000007 
-0.200000003 -5.70000029 -1.70000005 
-0.100000001 -5.80000019 -1.80000007 
-0.100000001 -5.80000019 -1.70000005 
-0.100000001 -5.70000029 -1.80000007 
-0.100000001 -5.70000029 -1.70000005 
-0.200000003 -5.5999999 -2.29999995 
-0.100000001 -5.5999999 -2.29999995 
-0.200000003 -5.5999999 -2.20000005 
-0.200000003 -5.5999999 -2.10000014 
-0.200000003 -5.5 -2.10000014 
-0.100000001 -5.5999999 -2.20000005 
-0.100000001 -5.5999999 -2.10000014 
-0.100000001 -5.5 -2.10000014 
-0.200000003 -5.5999999 -2 
-0.200000003 -5.5999999 -1.89999998 
-0.200000003 -5.5 -2 
-0.200000003 -5.5 -1.89999998 
-0.100000001 -5.5999999 -2 
-0.100000001 -5.5999999 -1.89999998 
-0.100000001 -5.5 -2 
-0.100000001 -5.5 -1.89999998 
-0.200000003 -5.5999999 -1.80000007 
-0.200000003 -5.5999999 -1.70000005 
-0.200000003 -5.5 -1.80000007 
-0.200000003 -5.5 -1.70000005 
-0.100000001 -5.5999999 -1.80000007 
-0.100000001 -5.5999999 -1.70000005 
-0.100000001 -5.5 -1.80000007 
-0.100000001 -5.5 -1.70000005 
-0.200000003 -5.4000001 -1.89999998 
-0.100000001 -5.4000001 -1.89999998 
-0.200000003 -5.4000001 -1.80000007 
-0.200000003 -5.4000001 -1.70000005 
-0.200000003 -5.30000019 -1.70000005 
-0.100000001 -5.4000001 -1.80000007 
-0.100000001 -5.4000001 -1.70000005 
-0.100000001 -5.30000019 -1.70000005 
-1.60000002 -6.4000001 -1.60000002 
-1.60000002 -6.4000001 -1.5 
-1.60000002 -6.30000019 -1.60000002 
-1.60000002 -6.30000019 -1.5 
-1.5 -6.4000001 -1.60000002 
-1.5 -6.4000001 -1.5 
-1.5 -6.30000019 -1.60000002 
-1.5 -6.30000019 -1.5 
-1.60000002 -6.4000001 -1.39999998 
-1.60000002 -6.4000001 -1.30000007 
-1.60000002 -6.30000019 -1.39999998 
-1.60000002 -6.30000019 -1.30000007 
-1.5 -6.4000001 -1.39999998 
-1.5 -6.4000001 -1.30000007 
-1.5 -6.30000019 -1.39999998 
-1.5 -6.30000019 -1.30000007 
-1.60000002 -6.4000001 -1.20000005 
-1.60000002 -6.4000001 -1.10000002 
-1.60000002 -6.30000019 -1.20000005 
-1.60000002 -6.30000019 -1.10000002 
-1.5 -6.4000001 -1.20000005 
-1.5 -6.4000001 -1.10000002 
-1.5 -6.30000019 -1.20000005 
-1.5 -6.30000019 -1.10000002 
-1.60000002 -6.4000001 -1 
-1.60000002 -6.4000001 -0.900000036 
-1.60000002 -6.30000019 -1 
-1.60000002 -6.30000019 -0.900000036 
-1.5 -6.4000001 -1 
-1.5 -6.4000001 -0.900000036 
-1.5 -6.30000019 -1 
-1.5 -6.30000019 -0.900000036 
-1.60000002 -6.4000001 -0.800000012 
-1.60000002 -6.4000001 -0.699999988 
-1.60000002 -6.30000019 -0.800000012 
-1.60000002 -6.30000019 -0.699999988 
-1.5 -6.4000001 -0.800000012 
-1.5 -6.4000001 -0.699999988 
-1.5 -6.30000019 -0.800000012 
-1.5 -6.30000019 -0.699999988 
-1.60000002 -6.4000001 -0.600000024 
-1.60000002 -6.4000001 -0.5 
-1.60000002 -6.30000019 -0.600000024 
-1.60000002 -6.30000019 -0.5 
-1.5 -6.4000001 -0.600000024 
-1.5 -6.4000001 -0.5 
-1.5 -6.30000019 -0.600000024 
-1.5 -6.30000019 -0.5 
-1.60000002 -6.4000001 -0.400000006 
-1.60000002 -6.4000001 -0.300000012 
-1.60000002 -6.30000019 -0.400000006 
-1.60000002 -6.30000019 -0.300000012 
-1.5 -6.4000001 -0.400000006 
-1.5 -6.4000001 -0.300000012 
-1.5 -6.30000019 -0.400000006 
-1.5 -6.30000019 -0.300000012 
-1.60000002 -6.4000001 -0.200000003 
-1.60000002 -6.4000001 -0.100000001 
-1.60000002 -6.30000019 -0.200000003 
-1.60000002 -6.30000019 -0.100000001 
-1.5 -6.4000001 -0.200000003 
-1.5 -6.4000001 -0.100000001 
-1.5 -6.30000019 -0.200000003 
-1.5 -6.30000019 -0.100000001 
-1.60000002 -6.20000029 -1.60000002 
-1.60000002 -6.20000029 -1.5 
-1.60000002 -6.0999999 -1.60000002 
-1.60000002 -6.0999999 -1.5 
-1.5 -6.20000029 -1.60000002 
-1.5 -6.20000029 -1.5 
-1.5 -6.0999999 -1.60000002 
-1.5 -6.0999999 -1.5 
-1.60000002 -6.20000029 -1.39999998 
-1.60000002 -6.20000029 -1.30000007 
-1.60000002 -6.0999999 -1.39999998 
-1.60000002 -6.0999999 -1.30000007 
-1.5 -6.20000029 -1.39999998 
-1.5 -6.20000029 -1.30000007 
-1.5 -6.0999999 -1.39999998 
-1.5 -6.0999999 -1.30000007 
-1.60000002 -6.20000029 -1.20000005 
-1.60000002 -6.20000029 -1.10000002 
-1.60000002 -6.0999999 -1.20000005 
-1.60000002 -6.0999999 -1.10000002 
-1.5 -6.20000029 -1.20000005 
-1.5 -6.20000029 -1.10000002 
-1.5 -6.0999999 -1.20000005 
-1.5 -6.0999999 -1.10000002 
-1.60000002 -6.20000029 -1 
-1.60000002 -6.20000029 -0.900000036 
-1.60000002 -6.0999999 -1 
-1.60000002 -6.0999999 -0.900000036 
-1.5 -6.20000029 -1 
-1.5 -6.20000029 -0.900000036 
-1.5 -6.0999999 -1 
-1.5 -6.0999999 -0.900000036 
-1.60000002 -6.20000029 -0.800000012 
-1.60000002 -6.20000029 -0.699999988 
-1.60000002 -6.0999999 -0.800000012 
-1.60000002 -6.0999999 -0.699999988 
-1.5 -6.20000029 -0.800000012 
-1.5 -6.20000029 -0.699999988 
-1.5 -6.0999999 -0.800000012 
-1.5 -6.0999999 -0.699999988 
-1.60000002 -6.20000029 -0.600000024 
-1.60000002 -6.20000029 -0.5 
-1.60000002 -6.0999999 -0.600000024 
-1.60000002 -6.0999999 -0.5 
-1.5 -6.20000029 -0.600000024 
-1.5 -6.20000029 -0.5 
-1.5 -6.0999999 -0.600000024 
-1.5 -6.0999999 -0.5 
-1.60000002 -6.20000029 -0.400000006 
-1.60000002 -6.20000029 -0.300000012 
-1.60000002 -6.0999999 -0.400000006 
-1.60000002 -6.0999999 -0.300000012 
-1.5 -6.20000029 -0.400000006 
-1.5 -6.20000029 -0.300000012 
-1.5 -6.0999999 -0.400000006 
-1.5 -6.0999999 -0.300000012 
-1.60000002 -6.20000029 -0.200000003 
-1.60000002 -6.20000029 -0.100000001 
-1.60000002 -6.0999999 -0.200000003 
-1.60000002 -6.0999999 -0.100000001 
-1.5 -6.20000029 -0.200000003 
-1.5 -6.20000029 -0.100000001 
-1.5 -6.0999999 -0.200000003 
-1.5 -6.0999999 -0.100000001 
-1.60000002 -6 -1.60000002 
-1.60000002 -6 -1.5 
-1.60000002 -5.9000001 -1.60000002 
-1.60000002 -5.9000001 -1.5 
-1.5 -6 -1.60000002 
-1.5 -6 -1.5 
-1.5 -5.9000001 -1.60000002 
-1.5 -5.9000001 -1.5 
-1.60000002 -6 -1.39999998 
-1.60000002 -6 -1.30000007 
-1.60000002 -5.9000001 -1.39999998 
-1.60000002 -5.9000001 -1.30000007 
-1.5 -6 -1.39999998 
-1.5 -6 -1.30000007 
-1.5 -5.9000001 -1.39999998 
-1.5 -5.9000001 -1.30000007 
-1.60000002 -6 -1.20000005 
-1.60000002 -6 -1.10000002 
-1.60000002 -5.9000001 -1.20000005 
-1.60000002 -5.9000001 -1.10000002 
-1.5 -6 -1.20000005 
-1.5 -6 -1.10000002 
-1.5 -5.9000001 -1.20000005 
-1.5 -5.9000001 -1.10000002 
-1.60000002 -6 -1 
-1.60000002 -6 -0.900000036 
-1.60000002 -5.9000001 -1 
-1.60000002 -5.9000001 -0.900000036 
-1.5 -6 -1 
-1.5 -6 -0.900000036 
-1.5 -5.9000001 -1 
-1.5 -5.9000001 -0.900000036 
-1.60000002 -6 -0.800000012 
-1.60000002 -6 -0.699999988 
-1.60000002 -5.9000001 -0.800000012 
-1.60000002 -5.9000001 -0.699999988 
-1.5 -6 -0.800000012 
-1.5 -6 -0.699999988 
-1.5 -5.9000001 -0.800000012 
-1.5 -5.9000001 -0.699999988 
-1.60000002 -6 -0.600000024 
-1.60000002 -6 -0.5 
-1.60000002 -5.9000001 -0.600000024 
-1.60000002 -5.9000001 -0.5 
-1.5 -6 -0.600000024 
-1.5 -6 -0.5 
-1.5 -5.9000001 -0.600000024 
-1.5 -5.9000001 -0.5 
-1.60000002 -6 -0.400000006 
-1.60000002 -6 -0.300000012 
-1.60000002 -5.9000001 -0.400000006 
-1.60000002 -5.9000001 -0.300000012 
-1.5 -6 -0.400000006 
-1.5 -6 -0.300000012 
-1.5 -5.9000001 -0.400000006 
-1.5 -5.9000001 -0.300000012 
-1.60000002 -6 -0.200000003 
-1.60000002 -6 -0.100000001 
-1.60000002 -5.9000001 -0.200000003 
-1.60000002 -5.9000001 -0.100000001 
-1.5 -6 -0.200000003 
-1.5 -6 -0.100000001 
-1.5 -5.9000001 -0.200000003 
-1.5 -5.9000001 -0.100000001 
-1.60000002 -5.80000019 -1.60000002 
-1.60000002 -5.80000019 -1.5 
-1.60000002 -5.70000029 -1.60000002 
-1.60000002 -5.70000029 -1.5 
-1.5 -5.80000019 -1.60000002 
-1.5 -5.80000019 -1.5 
-1.5 -5.70000029 -1.60000002 
-1.5 -5.70000029 -1.5 
-1.60000002 -5.80000019 -1.39999998 
-1.60000002 -5.80000019 -1.30000007 
-1.60000002 -5.70000029 -1.39999998 
-1.60000002 -5.70000029 -1.30000007 
-1.5 -5.80000019 -1.39999998 
-1.5 -5.80000019 -1.30000007 
-1.5 -5.70000029 -1.39999998 
-1.5 -5.70000029 -1.30000007 
-1.60000002 -5.80000019 -1.20000005 
-1.60000002 -5.80000019 -1.10000002 
-1.60000002 -5.70000029 -1.20000005 
-1.60000002 -5.70000029 -1.10000002 
-1.5 -5.80000019 -1.20000005 
-1.5 -5.80000019 -1.10000002 
-1.5 -5.70000029 -1.20000005 
-1.5 -5.70000029 -1.10000002 
-1.60000002 -5.80000019 -1 
-1.60000002 -5.80000019 -0.900000036 
-1.60000002 -5.70000029 -1 
-1.60000002 -5.70000029 -0.900000036 
-1.5 -5.80000019 -1 
-1.5 -5.80000019 -0.900000036 
-1.5 -5.70000029 -1 
-1.5 -5.70000029 -0.900000036 
-1.60000002 -5.80000019 -0.800000012 
-1.60000002 -5.80000019 -0.699999988 
-1.60000002 -5.70000029 -0.800000012 
-1.60000002 -5.70000029 -0.699999988 
-1.5 -5.80000019 -0.800000012 
-1.5 -5.80000019 -0.699999988 
-1.5 -5.70000029 -0.800000012 
-1.5 -5.70000029 -0.699999988 
-1.60000002 -5.80000019 -0.600000024 
-1.60000002 -5.80000019 -0.5 
-1.60000002 -5.70000029 -0.600000024 
-1.60000002 -5.70000029 -0.5 
-1.5 -5.80000019 -0.600000024 
-1.5 -5.80000019 -0.5 
-1.5 -5.70000029 -0.600000024 
-1.5 -5.70000029 -0.5 
-1.60000002 -5.80000019 -0.400000006 
-1.60000002 -5.80000019 -0.300000012 
-1.60000002 -5.70000029 -0.400000006 
-1.60000002 -5.70000029 -0.300000012 
-1.5 -5.80000019 -0.400000006 
-1.5 -5.80000019 -0.300000012 
-1.5 -5.70000029 -0.400000006 
-1.5 -5.70000029 -0.300000012 
-1.60000002 -5.80000019 -0.200000003 
-1.60000002 -5.80000019 -0.100000001 
-1.60000002 -5.70000029 -0.200000003 
-1.60000002 -5.70000029 -0.100000001 
-1.5 -5.80000019 -0.200000003 
-1.5 -5.80000019 -0.100000001 
-1.5 -5.70000029 -0.200000003 
-1.5 -5.70000029 -0.100000001 
-1.60000002 -5.5999999 -1.60000002 
-1.60000002 -5.5999999 -1.5 
-1.60000002 -5.5 -1.5 
-1.5 -5.5999999 -1.60000002 
-1.5 -5.5999999 -1.5 
-1.5 -5.5 -1.60000002 
-1.5 -5.5 -1.5 
-1.60000002 -5.5999999 -1.39999998 
-1.60000002 -5.5999999 -1.30000007 
-1.60000002 -5.5 -1.39999998 
-1.60000002 -5.5 -1.30000007 
-1.5 -5.5999999 -1.39999998 
-1.5 -5.5999999 -1.30000007 
-1.5 -5.5 -1.39999998 
-1.5 -5.5 -1.30000007 
-1.60000002 -5.5999999 -1.20000005 
-1.60000002 -5.5999999 -1.10000002 
-1.60000002 -5.5 -1.20000005 
-1.60000002 -5.5 -1.10000002 
-1.5 -5.5999999 -1.20000005 
-1.5 -5.5999999 -1.10000002 
-1.5 -5.5 -1.20000005 
-1.5 -5.5 -1.10000002 
-1.60000002 -5.5999999 -1 
-1.60000002 -5.5999999 -0.900000036 
-1.60000002 -5.5 -1 
-1.60000002 -5.5 -0.900000036 
-1.5 -5.5999999 -1 
-1.5 -5.5999999 -0.900000036 
-1.5 -5.5 -1 
-1.5 -5.5 -0.900000036 
-1.60000002 -5.5999999 -0.800000012 
-1.60000002 -5.5999999 -0.699999988 
-1.60000002 -5.5 -0.800000012 
-1.60000002 -5.5 -0.699999988 
-1.5 -5.5999999 -0.800000012 
-1.5 -5.5999999 -0.699999988 
-1.5 -5.5 -0.800000012 
-1.5 -5.5 -0.699999988 
-1.60000002 -5.5999999 -0.600000024 
-1.60000002 -5.5999999 -0.5 
-1.60000002 -5.5 -0.600000024 
-1.60000002 -5.5 -0.5 
-1.5 -5.5999999 -0.600000024 
-1.5 -5.5999999 -0.5 
-1.5 -5.5 -0.600000024 
-1.5 -5.5 -0.5 
-1.60000002 -5.5999999 -0.400000006 
-1.60000002 -5.5999999 -0.300000012 
-1.60000002 -5.5 -0.400000006 
-1.60000002 -5.5 -0.300000012 
-1.5 -5.5999999 -0.400000006 
-1.5 -5.5999999 -0.300000012 
-1.5 -5.5 -0.400000006 
-1.5 -5.5 -0.300000012 
-1.60000002 -5.5999999 -0.200000003 
-1.60000002 -5.5999999 -0.100000001 
-1.60000002 -5.5 -0.200000003 
-1.60000002 -5.5 -0.100000001 
-1.5 -5.5999999 -0.200000003 
-1.5 -5.5999999 -0.100000001 
-1.5 -5.5 -0.200000003 
-1.5 -5.5 -0.100000001 
-1.60000002 -5.4000001 -1.10000002 
-1.5 -5.4000001 -1.20000005 
-1.5 -5.4000001 -1.10000002 
-1.60000002 -5.4000001 -1 
-1.60000002 -5.4000001 -0.900000036 
-1.5 -5.4000001 -1 
-1.5 -5.4000001 -0.900000036 
-1.5 -5.30000019 -0.900000036 
-1.60000002 -5.4000001 -0.800000012 
-1.60000002 -5.4000001 -0.699999988 
-1.60000002 -5.30000019 -0.699999988 
-1.5 -5.4000001 -0.800000012 
-1.5 -5.4000001 -0.699999988 
-1.5 -5.30000019 -0.800000012 
-1.5 -5.30000019 -0.699999988 
-1.60000002 -5.4000001 -0.600000024 
-1.60000002 -5.4000001 -0.5 
-1.60000002 -5.30000019 -0.600000024 
-1.60000002 -5.30000019 -0.5 
-1.5 -5.4000001 -0.600000024 
-1.5 -5.4000001 -0.5 
-1.5 -5.30000019 -0.600000024 
-1.5 -5.30000019 -0.5 
-1.60000002 -5.4000001 -0.400000006 
-1.60000002 -5.4000001 -0.300000012 
-1.60000002 -5.30000019 -0.400000006 
-1.60000002 -5.30000019 -0.300000012 
-1.5 -5.4000001 -0.400000006 
-1.5 -5.4000001 -0.300000012 
-1.5 -5.30000019 -0.400000006 
-1.5 -5.30000019 -0.300000012 
-1.60000002 -5.4000001 -0.200000003 
-1.60000002 -5.4000001 -0.100000001 
-1.60000002 -5.30000019 -0.200000003 
-1.60000002 -5.30000019 -0.100000001 
-1.5 -5.4000001 -0.200000003 
-1.5 -5.4000001 -0.100000001 
-1.5 -5.30000019 -0.200000003 
-1.5 -5.30000019 -0.100000001 
-1.5 -5.20000029 -0.300000012 
-1.5 -5.20000029 -0.200000003 
-1.5 -5.20000029 -0.100000001 
-1.39999998 -6.4000001 -1.60000002 
-1.39999998 -6.4000001 -1.5 
-1.39999998 -6.30000019 -1.60000002 
-1.39999998 -6.30000019 -1.5 
-1.30000007 -6.4000001 -1.60000002 
-1.30000007 -6.4000001 -1.5 
-1.30000007 -6.30000019 -1.60000002 
-1.30000007 -6.30000019 -1.5 
-1.39999998 -6.4000001 -1.39999998 
-1.39999998 -6.4000001 -1.30000007 
-1.39999998 -6.30000019 -1.39999998 
-1.39999998 -6.30000019 -1.30000007 
-1.30000007 -6.4000001 -1.39999998 
-1.30000007 -6.4000001 -1.30000007 
-1.30000007 -6.30000019 -1.39999998 
-1.30000007 -6.30000019 -1.30000007 
-1.39999998 -6.4000001 -1.20000005 
-1.39999998 -6.4000001 -1.10000002 
-1.39999998 -6.30000019 -1.20000005 
-1.39999998 -6.30000019 -1.10000002 
-1.30000007 -6.4000001 -1.20000005 
-1.30000007 -6.4000001 -1.10000002 
-1.30000007 -6.30000019 -1.20000005 
-1.30000007 -6.30000019 -1.10000002 
-1.39999998 -6.4000001 -1 
-1.39999998 -6.4000001 -0.900000036 
-1.39999998 -6.30000019 -1 
-1.39999998 -6.30000019 -0.900000036 
-1.30000007 -6.4000001 -1 
-1.30000007 -6.4000001 -0.900000036 
-1.30000007 -6.30000019 -1 
-1.30000007 -6.30000019 -0.900000036 
-1.39999998 -6.4000001 -0.800000012 
-1.39999998 -6.4000001 -0.699999988 
-1.39999998 -6.30000019 -0.800000012 
-1.39999998 -6.30000019 -0.699999988 
-1.30000007 -6.4000001 -0.800000012 
-1.30000007 -6.4000001 -0.699999988 
-1.30000007 -6.30000019 -0.800000012 
-1.30000007 -6.30000019 -0.699999988 
-1.39999998 -6.4000001 -0.600000024 
-1.39999998 -6.4000001 -0.5 
-1.39999998 -6.30000019 -0.600000024 
-1.39999998 -6.30000019 -0.5 
-1.30000007 -6.4000001 -0.600000024 
-1.30000007 -6.4000001 -0.5 
-1.30000007 -6.30000019 -0.600000024 
-1.30000007 -6.30000019 -0.5 
-1.39999998 -6.4000001 -0.400000006 
-1.39999998 -6.4000001 -0.300000012 
-1.39999998 -6.30000019 -0.400000006 
-1.39999998 -6.30000019 -0.300000012 
-1.30000007 -6.4000001 -0.400000006 
-1.30000007 -6.4000001 -0.300000012 
-1.30000007 -6.30000019 -0.400000006 
-1.30000007 -6.30000019 -0.300000012 
-1.39999998 -6.4000001 -0.200000003 
-1.39999998 -6.4000001 -0.100000001 
-1.39999998 -6.30000019 -0.200000003 
-1.39999998 -6.30000019 -0.100000001 
-1.30000007 -6.4000001 -0.200000003 
-1.30000007 -6.4000001 -0.100000001 
-1.30000007 -6.30000019 -0.200000003 
-1.30000007 -6.30000019 -0.100000001 
-1.39999998 -6.20000029 -1.60000002 
-1.39999998 -6.20000029 -1.5 
-1.39999998 -6.0999999 -1.60000002 
-1.39999998 -6.0999999 -1.5 
-1.30000007 -6.20000029 -1.60000002 
-1.30000007 -6.20000029 -1.5 
-1.30000007 -6.0999999 -1.60000002 
-1.30000007 -6.0999999 -1.5 
-1.39999998 -6.20000029 -1.39999998 
-1.39999998 -6.20000029 -1.30000007 
-1.39999998 -6.0999999 -1.39999998 
-1.39999998 -6.0999999 -1.30000007 
-1.30000007 -6.20000029 -1.39999998 
-1.30000007 -6.20000029 -1.30000007 
-1.30000007 -6.0999999 -1.39999998 
-1.30000007 -6.0999999 -1.30000007 
-1.39999998 -6.20000029 -1.20000005 
-1.39999998 -6.20000029 -1.10000002 
-1.39999998 -6.0999999 -1.20000005 
-1.39999998 -6.0999999 -1.10000002 
-1.30000007 -6.20000029 -1.20000005 
-1.30000007 -6.20000029 -1.10000002 
-1.30000007 -6.0999999 -1.20000005 
-1.30000007 -6.0999999 -1.10000002 
-1.39999998 -6.20000029 -1 
-1.39999998 -6.20000029 -0.900000036 
-1.39999998 -6.0999999 -1 
-1.39999998 -6.0999999 -0.900000036 
-1.30000007 -6.20000029 -1 
-1.30000007 -6.20000029 -0.900000036 
-1.30000007 -6.0999999 -1 
-1.30000007 -6.0999999 -0.900000036 
-1.39999998 -6.20000029 -0.800000012 
-1.39999998 -6.20000029 -0.699999988 
-1.39999998 -6.0999999 -0.800000012 
-1.39999998 -6.0999999 -0.699999988 
-1.30000007 -6.20000029 -0.800000012 
-1.30000007 -6.20000029 -0.699999988 
-1.30000007 -6.0999999 -0.800000012 
-1.30000007 -6.0999999 -0.699999988 
-1.39999998 -6.20000029 -0.600000024 
-1.39999998 -6.20000029 -0.5 
-1.39999998 -6.0999999 -0.600000024 
-1.39999998 -6.0999999 -0.5 
-1.30000007 -6.20000029 -0.600000024 
-1.30000007 -6.20000029 -0.5 
-1.30000007 -6.0999999 -0.600000024 
-1.30000007 -6.0999999 -0.5 
-1.39999998 -6.20000029 -0.400000006 
-1.39999998 -6.20000029 -0.300000012 
-1.39999998 -6.0999999 -0.400000006 
-1.39999998 -6.0999999 -0.300000012 
-1.30000007 -6.20000029 -0.400000006 
-1.30000007 -6.20000029 -0.300000012 
-1.30000007 -6.0999999 -0.400000006 
-1.30000007 -6.0999999 -0.300000012 
-1.39999998 -6.20000029 -0.200000003 
-1.39999998 -6.20000029 -0.100000001 
-1.39999998 -6.0999999 -0.200000003 
-1.39999998 -6.0999999 -0.100000001 
-1.30000007 -6.20000029 -0.200000003 
-1.30000007 -6.20000029 -0.100000001 
-1.30000007 -6.0999999 -0.200000003 
-1.30000007 -6.0999999 -0.100000001 
-1.39999998 -6 -1.60000002 
-1.39999998 -6 -1.5 
-1.39999998 -5.9000001 -1.60000002 
-1.39999998 -5.9000001 -1.5 
-1.30000007 -6 -1.60000002 
-1.30000007 -6 -1.5 
-1.30000007 -5.9000001 -1.60000002 
-1.30000007 -5.9000001 -1.5 
-1.39999998 -6 -1.39999998 
-1.39999998 -6 -1.30000007 
-1.39999998 -5.9000001 -1.39999998 
-1.39999998 -5.9000001 -1.30000007 
-1.30000007 -6 -1.39999998 
-1.30000007 -6 -1.30000007 
-1.30000007 -5.9000001 -1.39999998 
-1.30000007 -5.9000001 -1.30000007 
-1.39999998 -6 -1.20000005 
-1.39999998 -6 -1.10000002 
-1.39999998 -5.9000001 -1.20000005 
-1.39999998 -5.9000001 -1.10000002 
-1.30000007 -6 -1.20000005 
-1.30000007 -6 -1.10000002 
-1.30000007 -5.9000001 -1.20000005 
-1.30000007 -5.9000001 -1.10000002 
-1.39999998 -6 -1 
-1.39999998 -6 -0.900000036 
-1.39999998 -5.9000001 -1 
-1.39999998 -5.9000001 -0.900000036 
-1.30000007 -6 -1 
-1.30000007 -6 -0.900000036 
-1.30000007 -5.9000001 -1 
-1.30000007 -5.9000001 -0.900000036 
-1.39999998 -6 -0.800000012 
-1.39999998 -6 -0.699999988 
-1.39999998 -5.9000001 -0.800000012 
-1.39999998 -5.9000001 -0.699999988 
-1.30000007 -6 -0.800000012 
-1.30000007 -6 -0.699999988 
-1.30000007 -5.9000001 -0.800000012 
-1.30000007 -5.9000001 -0.699999988 
-1.39999998 -6 -0.600000024 
-1.39999998 -6 -0.5 
-1.39999998 -5.9000001 -0.600000024 
-1.39999998 -5.9000001 -0.5 
-1.30000007 -6 -0.600000024 
-1.30000007 -6 -0.5 
-1.30000007 -5.9000001 -0.600000024 
-1.30000007 -5.9000001 -0.5 
-1.39999998 -6 -0.400000006 
-1.39999998 -6 -0.300000012 
-1.39999998 -5.9000001 -0.400000006 
-1.39999998 -5.9000001 -0.300000012 
-1.30000007 -6 -0.400000006 
-1.30000007 -6 -0.300000012 
-1.30000007 -5.9000001 -0.400000006 
-1.30000007 -5.9000001 -0.300000012 
-1.39999998 -6 -0.200000003 
-1.39999998 -6 -0.100000001 
-1.39999998 -5.9000001 -0.200000003 
-1.39999998 -5.9000001 -0.100000001 
-1.30000007 -6 -0.200000003 
-1.30000007 -6 -0.100000001 
-1.30000007 -5.9000001 -0.200000003 
-1.30000007 -5.9000001 -0.100000001 
-1.39999998 -5.80000019 -1.60000002 
-1.39999998 -5.80000019 -1.5 
-1.39999998 -5.70000029 -1.60000002 
-1.39999998 -5.70000029 -1.5 
-1.30000007 -5.80000019 -1.60000002 
-1.30000007 -5.80000019 -1.5 
-1.30000007 -5.70000029 -1.60000002 
-1.30000007 -5.70000029 -1.5 
-1.39999998 -5.80000019 -1.39999998 
-1.39999998 -5.80000019 -1.30000007 
-1.39999998 -5.70000029 -1.39999998 
-1.39999998 -5.70000029 -1.30000007 
-1.30000007 -5.80000019 -1.39999998 
-1.30000007 -5.80000019 -1.30000007 
-1.30000007 -5.70000029 -1.39999998 
-1.30000007 -5.70000029 -1.30000007 
-1.39999998 -5.80000019 -1.20000005 
-1.39999998 -5.80000019 -1.10000002 
-1.39999998 -5.70000029 -1.20000005 
-1.39999998 -5.70000029 -1.10000002 
-1.30000007 -5.80000019 -1.20000005 
-1.30000007 -5.80000019 -1.10000002 
-1.30000007 -5.70000029 -1.20000005 
-1.30000007 -5.70000029 -1.10000002 
-1.39999998 -5.80000019 -1 
-1.39999998 -5.80000019 -0.900000036 
-1.39999998 -5.70000029 -1 
-1.39999998 -5.70000029 -0.900000036 
-1.30000007 -5.80000019 -1 
-1.30000007 -5.80000019 -0.900000036 
-1.30000007 -5.70000029 -1 
-1.30000007 -5.70000029 -0.900000036 
-1.39999998 -5.80000019 -0.800000012 
-1.39999998 -5.80000019 -0.699999988 
-1.39999998 -5.70000029 -0.800000012 
-1.39999998 -5.70000029 -0.699999988 
-1.30000007 -5.80000019 -0.800000012 
-1.30000007 -5.80000019 -0.699999988 
-1.30000007 -5.70000029 -0.800000012 
-1.30000007 -5.70000029 -0.699999988 
-1.39999998 -5.80000019 -0.600000024 
-1.39999998 -5.80000019 -0.5 
-1.39999998 -5.70000029 -0.600000024 
-1.39999998 -5.70000029 -0.5 
-1.30000007 -5.80000019 -0.600000024 
-1.30000007 -5.80000019 -0.5 
-1.30000007 -5.70000029 -0.600000024 
-1.30000007 -5.70000029 -0.5 
-1.39999998 -5.80000019 -0.400000006 
-1.39999998 -5.80000019 -0.300000012 
-1.39999998 -5.70000029 -0.400000006 
-1.39999998 -5.70000029 -0.300000012 
-1.30000007 -5.80000019 -0.400000006 
-1.30000007 -5.80000019 -0.300000012 
-1.30000007 -5.70000029 -0.400000006 
-1.30000007 -5.70000029 -0.300000012 
-1.39999998 -5.80000019 -0.200000003 
-1.39999998 -5.80000019 -0.100000001 
-1.39999998 -5.70000029 -0.200000003 
-1.39999998 -5.70000029 -0.100000001 
-1.30000007 -5.80000019 -0.200000003 
-1.30000007 -5.80000019 -0.100000001 
-1.30000007 -5.70000029 -0.200000003 
-1.30000007 -5.70000029 -0.100000001 
-1.39999998 -5.5999999 -1.60000002 
-1.39999998 -5.5999999 -1.5 
-1.39999998 -5.5 -1.60000002 
-1.39999998 -5.5 -1.5 
-1.30000007 -5.5999999 -1.60000002 
-1.30000007 -5.5999999 -1.5 
-1.30000007 -5.5 -1.60000002 
-1.30000007 -5.5 -1.5 
-1.39999998 -5.5999999 -1.39999998 
-1.39999998 -5.5999999 -1.30000007 
-1.39999998 -5.5 -1.39999998 
-1.39999998 -5.5 -1.30000007 
-1.30000007 -5.5999999 -1.39999998 
-1.30000007 -5.5999999 -1.30000007 
-1.30000007 -5.5 -1.39999998 
-1.30000007 -5.5 -1.30000007 
-1.39999998 -5.5999999 -1.20000005 
-1.39999998 -5.5999999 -1.10000002 
-1.39999998 -5.5 -1.20000005 
-1.39999998 -5.5 -1.10000002 
-1.30000007 -5.5999999 -1.20000005 
-1.30000007 -5.5999999 -1.10000002 
-1.30000007 -5.5 -1.20000005 
-1.30000007 -5.5 -1.10000002 
-1.39999998 -5.5999999 -1 
-1.39999998 -5.5999999 -0.900000036 
-1.39999998 -5.5 -1 
-1.39999998 -5.5 -0.900000036 
-1.30000007 -5.5999999 -1 
-1.30000007 -5.5999999 -0.900000036 
-1.30000007 -5.5 -1 
-1.30000007 -5.5 -0.900000036 
-1.39999998 -5.5999999 -0.800000012 
-1.39999998 -5.5999999 -0.699999988 
-1.39999998 -5.5 -0.800000012 
-1.39999998 -5.5 -0.699999988 
-1.30000007 -5.5999999 -0.800000012 
-1.30000007 -5.5999999 -0.699999988 
-1.30000007 -5.5 -0.800000012 
-1.30000007 -5.5 -0.699999988 
-1.39999998 -5.5999999 -0.600000024 
-1.39999998 -5.5999999 -0.5 
-1.39999998 -5.5 -0.600000024 
-1.39999998 -5.5 -0.5 
-1.30000007 -5.5999999 -0.600000024 
-1.30000007 -5.5999999 -0.5 
-1.30000007 -5.5 -0.600000024 
-1.30000007 -5.5 -0.5 
-1.39999998 -5.5999999 -0.400000006 
-1.39999998 -5.5999999 -0.300000012 
-1.39999998 -5.5 -0.400000006 
-1.39999998 -5.5 -0.300000012 
-1.30000007 -5.5999999 -0.400000006 
-1.30000007 -5.5999999 -0.300000012 
-1.30000007 -5.5 -0.400000006 
-1.30000007 -5.5 -0.300000012 
-1.39999998 -5.5999999 -0.200000003 
-1.39999998 -5.5999999 -0.100000001 
-1.39999998 -5.5 -0.200000003 
-1.39999998 -5.5 -0.100000001 
-1.30000007 -5.5999999 -0.200000003 
-1.30000007 -5.5999999 -0.100000001 
-1.30000007 -5.5 -0.200000003 
-1.30000007 -5.5 -0.100000001 
-1.39999998 -5.4000001 -1.39999998 
-1.39999998 -5.4000001 -1.30000007 
-1.30000007 -5.4000001 -1.39999998 
-1.30000007 -5.4000001 -1.30000007 
-1.39999998 -5.4000001 -1.20000005 
-1.39999998 -5.4000001 -1.10000002 
-1.30000007 -5.4000001 -1.20000005 
-1.30000007 -5.4000001 -1.10000002 
-1.30000007 -5.30000019 -1.10000002 
-1.39999998 -5.4000001 -1 
-1.39999998 -5.4000001 -0.900000036 
-1.39999998 -5.30000019 -1 
-1.39999998 -5.30000019 -0.900000036 
-1.30000007 -5.4000001 -1 
-1.30000007 -5.4000001 -0.900000036 
-1.30000007 -5.30000019 -1 
-1.30000007 -5.30000019 -0.900000036 
-1.39999998 -5.4000001 -0.800000012 
-1.39999998 -5.4000001 -0.699999988 
-1.39999998 -5.30000019 -0.800000012 
-1.39999998 -5.30000019 -0.699999988 
-1.30000007 -5.4000001 -0.800000012 
-1.30000007 -5.4000001 -0.699999988 
-1.30000007 -5.30000019 -0.800000012 
-1.30000007 -5.30000019 -0.699999988 
-1.39999998 -5.4000001 -0.600000024 
-1.39999998 -5.4000001 -0.5 
-1.39999998 -5.30000019 -0.600000024 
-1.39999998 -5.30000019 -0.5 
-1.30000007 -5.4000001 -0.600000024 
-1.30000007 -5.4000001 -0.5 
-1.30000007 -5.30000019 -0.600000024 
-1.30000007 -5.30000019 -0.5 
-1.39999998 -5.4000001 -0.400000006 
-1.39999998 -5.4000001 -0.300000012 
-1.39999998 -5.30000019 -0.400000006 
-1.39999998 -5.30000019 -0.300000012 
-1.30000007 -5.4000001 -0.400000006 
-1.30000007 -5.4000001 -0.300000012 
-1.30000007 -5.30000019 -0.400000006 
-1.30000007 -5.30000019 -0.300000012 
-1.39999998 -5.4000001 -0.200000003 
-1.39999998 -5.4000001 -0.100000001 
-1.39999998 -5.30000019 -0.200000003 
-1.39999998 -5.30000019 -0.100000001 
-1.30000007 -5.4000001 -0.200000003 
-1.30000007 -5.4000001 -0.100000001 
-1.30000007 -5.30000019 -0.200000003 
-1.30000007 -5.30000019 -0.100000001 
-1.30000007 -5.20000029 -0.800000012 
-1.30000007 -5.20000029 -0.699999988 
-1.39999998 -5.20000029 -0.600000024 
-1.39999998 -5.20000029 -0.5 
-1.30000007 -5.20000029 -0.600000024 
-1.30000007 -5.20000029 -0.5 
-1.39999998 -5.20000029 -0.400000006 
-1.39999998 -5.20000029 -0.300000012 
-1.30000007 -5.20000029 -0.400000006 
-1.30000007 -5.20000029 -0.300000012 
-1.39999998 -5.20000029 -0.200000003 
-1.39999998 -5.20000029 -0.100000001 
-1.30000007 -5.20000029 -0.200000003 
-1.30000007 -5.20000029 -0.100000001 
-1.30000007 -5.0999999 -0.200000003 
-1.30000007 -5.0999999 -0.100000001 
-1.20000005 -6.4000001 -1.60000002 
-1.20000005 -6.4000001 -1.5 
-1.20000005 -6.30000019 -1.60000002 
-1.20000005 -6.30000019 -1.5 
-1.10000002 -6.4000001 -1.60000002 
-1.10000002 -6.4000001 -1.5 
-1.10000002 -6.30000019 -1.60000002 
-1.10000002 -6.30000019 -1.5 
-1.20000005 -6.4000001 -1.39999998 
-1.20000005 -6.4000001 -1.30000007 
-1.20000005 -6.30000019 -1.39999998 
-1.20000005 -6.30000019 -1.30000007 
-1.10000002 -6.4000001 -1.39999998 
-1.10000002 -6.4000001 -1.30000007 
-1.10000002 -6.30000019 -1.39999998 
-1.10000002 -6.30000019 -1.30000007 
-1.20000005 -6.4000001 -1.20000005 
-1.20000005 -6.4000001 -1.10000002 
-1.20000005 -6.30000019 -1.20000005 
-1.20000005 -6.30000019 -1.10000002 
-1.10000002 -6.4000001 -1.20000005 
-1.10000002 -6.4000001 -1.10000002 
-1.10000002 -6.30000019 -1.20000005 
-1.10000002 -6.30000019 -1.10000002 
-1.20000005 -6.4000001 -1 
-1.20000005 -6.4000001 -0.900000036 
-1.20000005 -6.30000019 -1 
-1.20000005 -6.30000019 -0.900000036 
-1.10000002 -6.4000001 -1 
-1.10000002 -6.4000001 -0.900000036 
-1.10000002 -6.30000019 -1 
-1.10000002 -6.30000019 -0.900000036 
-1.20000005 -6.4000001 -0.800000012 
-1.20000005 -6.4000001 -0.699999988 
-1.20000005 -6.30000019 -0.800000012 
-1.20000005 -6.30000019 -0.699999988 
-1.10000002 -6.4000001 -0.800000012 
-1.10000002 -6.4000001 -0.699999988 
-1.10000002 -6.30000019 -0.800000012 
-1.10000002 -6.30000019 -0.699999988 
-1.20000005 -6.4000001 -0.600000024 
-1.20000005 -6.4000001 -0.5 
-1.20000005 -6.30000019 -0.600000024 
-1.20000005 -6.30000019 -0.5 
-1.10000002 -6.4000001 -0.600000024 
-1.10000002 -6.4000001 -0.5 
-1.10000002 -6.30000019 -0.600000024 
-1.10000002 -6.30000019 -0.5 
-1.20000005 -6.4000001 -0.400000006 
-1.20000005 -6.4000001 -0.300000012 
-1.20000005 -6.30000019 -0.400000006 
-1.20000005 -6.30000019 -0.300000012 
-1.10000002 -6.4000001 -0.400000006 
-1.10000002 -6.4000001 -0.300000012 
-1.10000002 -6.30000019 -0.400000006 
-1.10000002 -6.30000019 -0.300000012 
-1.20000005 -6.4000001 -0.200000003 
-1.20000005 -6.4000001 -0.100000001 
-1.20000005 -6.30000019 -0.200000003 
-1.20000005 -6.30000019 -0.100000001 
-1.10000002 -6.4000001 -0.200000003 
-1.10000002 -6.4000001 -0.100000001 
-1.10000002 -6.30000019 -0.200000003 
-1.10000002 -6.30000019 -0.100000001 
-1.20000005 -6.20000029 -1.60000002 
-1.20000005 -6.20000029 -1.5 
-1.20000005 -6.0999999 -1.60000002 
-1.20000005 -6.0999999 -1.5 
-1.10000002 -6.20000029 -1.60000002 
-1.10000002 -6.20000029 -1.5 
-1.10000002 -6.0999999 -1.60000002 
-1.10000002 -6.0999999 -1.5 
-1.20000005 -6.20000029 -1.39999998 
-1.20000005 -6.20000029 -1.30000007 
-1.20000005 -6.0999999 -1.39999998 
-1.20000005 -6.0999999 -1.30000007 
-1.10000002 -6.20000029 -1.39999998 
-1.10000002 -6.20000029 -1.30000007 
-1.10000002 -6.0999999 -1.39999998 
-1.10000002 -6.0999999 -1.30000007 
-1.20000005 -6.20000029 -1.20000005 
-1.20000005 -6.20000029 -1.10000002 
-1.20000005 -6.0999999 -1.20000005 
-1.20000005 -6.0999999 -1.10000002 
-1.10000002 -6.20000029 -1.20000005 
-1.10000002 -6.20000029 -1.10000002 
-1.10000002 -6.0999999 -1.20000005 
-1.10000002 -6.0999999 -1.10000002 
-1.20000005 -6.20000029 -1 
-1.20000005 -6.20000029 -0.900000036 
-1.20000005 -6.0999999 -1 
-1.20000005 -6.0999999 -0.900000036 
-1.10000002 -6.20000029 -1 
-1.10000002 -6.20000029 -0.900000036 
-1.10000002 -6.0999999 -1 
-1.10000002 -6.0999999 -0.900000036 
-1.20000005 -6.20000029 -0.800000012 
-1.20000005 -6.20000029 -0.699999988 
-1.20000005 -6.0999999 -0.800000012 
-1.20000005 -6.0999999 -0.699999988 
-1.10000002 -6.20000029 -0.800000012 
-1.10000002 -6.20000029 -0.699999988 
-1.10000002 -6.0999999 -0.800000012 
-1.10000002 -6.0999999 -0.699999988 
-1.20000005 -6.20000029 -0.600000024 
-1.20000005 -6.20000029 -0.5 
-1.20000005 -6.0999999 -0.600000024 
-1.20000005 -6.0999999 -0.5 
-1.10000002 -6.20000029 -0.600000024 
-1.10000002 -6.20000029 -0.5 
-1.10000002 -6.0999999 -0.600000024 
-1.10000002 -6.0999999 -0.5 
-1.20000005 -6.20000029 -0.400000006 
-1.20000005 -6.20000029 -0.300000012 
-1.20000005 -6.0999999 -0.400000006 
-1.20000005 -6.0999999 -0.300000012 
-1.10000002 -6.20000029 -0.400000006 
-1.10000002 -6.20000029 -0.300000012 
-1.10000002 -6.0999999 -0.400000006 
-1.10000002 -6.0999999 -0.300000012 
-1.20000005 -6.20000029 -0.200000003 
-1.20000005 -6.20000029 -0.100000001 
-1.20000005 -6.0999999 -0.200000003 
-1.20000005 -6.0999999 -0.100000001 
-1.10000002 -6.20000029 -0.200000003 
-1.10000002 -6.20000029 -0.100000001 
-1.10000002 -6.0999999 -0.200000003 
-1.10000002 -6.0999999 -0.100000001 
-1.20000005 -6 -1.60000002 
-1.20000005 -6 -1.5 
-1.20000005 -5.9000001 -1.60000002 
-1.20000005 -5.9000001 -1.5 
-1.10000002 -6 -1.60000002 
-1.10000002 -6 -1.5 
-1.10000002 -5.9000001 -1.60000002 
-1.10000002 -5.9000001 -1.5 
-1.20000005 -6 -1.39999998 
-1.20000005 -6 -1.30000007 
-1.20000005 -5.9000001 -1.39999998 
-1.20000005 -5.9000001 -1.30000007 
-1.10000002 -6 -1.39999998 
-1.10000002 -6 -1.30000007 
-1.10000002 -5.9000001 -1.39999998 
-1.10000002 -5.9000001 -1.30000007 
-1.20000005 -6 -1.20000005 
-1.20000005 -6 -1.10000002 
-1.20000005 -5.9000001 -1.20000005 
-1.20000005 -5.9000001 -1.10000002 
-1.10000002 -6 -1.20000005 
-1.10000002 -6 -1.10000002 
-1.10000002 -5.9000001 -1.20000005 
-1.10000002 -5.9000001 -1.10000002 
-1.20000005 -6 -1 
-1.20000005 -6 -0.900000036 
-1.20000005 -5.9000001 -1 
-1.20000005 -5.9000001 -0.900000036 
-1.10000002 -6 -1 
-1.10000002 -6 -0.900000036 
-1.10000002 -5.9000001 -1 
-1.10000002 -5.9000001 -0.900000036 
-1.20000005 -6 -0.800000012 
-1.20000005 -6 -0.699999988 
-1.20000005 -5.9000001 -0.800000012 
-1.20000005 -5.9000001 -0.699999988 
-1.10000002 -6 -0.800000012 
-1.10000002 -6 -0.699999988 
-1.10000002 -5.9000001 -0.800000012 
-1.10000002 -5.9000001 -0.699999988 
-1.20000005 -6 -0.600000024 
-1.20000005 -6 -0.5 
-1.20000005 -5.9000001 -0.600000024 
-1.20000005 -5.9000001 -0.5 
-1.10000002 -6 -0.600000024 
-1.10000002 -6 -0.5 
-1.10000002 -5.9000001 -0.600000024 
-1.10000002 -5.9000001 -0.5 
-1.20000005 -6 -0.400000006 
-1.20000005 -6 -0.300000012 
-1.20000005 -5.9000001 -0.400000006 
-1.20000005 -5.9000001 -0.300000012 
-1.10000002 -6 -0.400000006 
-1.10000002 -6 -0.300000012 
-1.10000002 -5.9000001 -0.400000006 
-1.10000002 -5.9000001 -0.300000012 
-1.20000005 -6 -0.200000003 
-1.20000005 -6 -0.100000001 
-1.20000005 -5.9000001 -0.200000003 
-1.20000005 -5.9000001 -0.100000001 
-1.10000002 -6 -0.200000003 
-1.10000002 -6 -0.100000001 
-1.10000002 -5.9000001 -0.200000003 
-1.10000002 -5.9000001 -0.100000001 
-1.20000005 -5.80000019 -1.60000002 
-1.20000005 -5.80000019 -1.5 
-1.20000005 -5.70000029 -1.60000002 
-1.20000005 -5.70000029 -1.5 
-1.10000002 -5.80000019 -1.60000002 
-1.10000002 -5.80000019 -1.5 
-1.10000002 -5.70000029 -1.60000002 
-1.10000002 -5.70000029 -1.5 
-1.20000005 -5.80000019 -1.39999998 
-1.20000005 -5.80000019 -1.30000007 
-1.20000005 -5.70000029 -1.39999998 
-1.20000005 -5.70000029 -1.30000007 
-1.10000002 -5.80000019 -1.39999998 
-1.10000002 -5.80000019 -1.30000007 
-1.10000002 -5.70000029 -1.39999998 
-1.10000002 -5.70000029 -1.30000007 
-1.20000005 -5.80000019 -1.20000005 
-1.20000005 -5.80000019 -1.10000002 
-1.20000005 -5.70000029 -1.20000005 
-1.20000005 -5.70000029 -1.10000002 
-1.10000002 -5.80000019 -1.20000005 
-1.10000002 -5.80000019 -1.10000002 
-1.10000002 -5.70000029 -1.20000005 
-1.10000002 -5.70000029 -1.10000002 
-1.20000005 -5.80000019 -1 
-1.20000005 -5.80000019 -0.900000036 
-1.20000005 -5.70000029 -1 
-1.20000005 -5.70000029 -0.900000036 
-1.10000002 -5.80000019 -1 
-1.10000002 -5.80000019 -0.900000036 
-1.10000002 -5.70000029 -1 
-1.10000002 -5.70000029 -0.900000036 
-1.20000005 -5.80000019 -0.800000012 
-1.20000005 -5.80000019 -0.699999988 
-1.20000005 -5.70000029 -0.800000012 
-1.20000005 -5.70000029 -0.699999988 
-1.10000002 -5.80000019 -0.800000012 
-1.10000002 -5.80000019 -0.699999988 
-1.10000002 -5.70000029 -0.800000012 
-1.10000002 -5.70000029 -0.699999988 
-1.20000005 -5.80000019 -0.600000024 
-1.20000005 -5.80000019 -0.5 
-1.20000005 -5.70000029 -0.600000024 
-1.20000005 -5.70000029 -0.5 
-1.10000002 -5.80000019 -0.600000024 
-1.10000002 -5.80000019 -0.5 
-1.10000002 -5.70000029 -0.600000024 
-1.10000002 -5.70000029 -0.5 
-1.20000005 -5.80000019 -0.400000006 
-1.20000005 -5.80000019 -0.300000012 
-1.20000005 -5.70000029 -0.400000006 
-1.20000005 -5.70000029 -0.300000012 
-1.10000002 -5.80000019 -0.400000006 
-1.10000002 -5.80000019 -0.300000012 
-1.10000002 -5.70000029 -0.400000006 
-1.10000002 -5.70000029 -0.300000012 
-1.20000005 -5.80000019 -0.200000003 
-1.20000005 -5.80000019 -0.100000001 
-1.20000005 -5.70000029 -0.200000003 
-1.20000005 -5.70000029 -0.100000001 
-1.10000002 -5.80000019 -0.200000003 
-1.10000002 -5.80000019 -0.100000001 
-1.10000002 -5.70000029 -0.200000003 
-1.10000002 -5.70000029 -0.100000001 
-1.20000005 -5.5999999 -1.60000002 
-1.20000005 -5.5999999 -1.5 
-1.20000005 -5.5 -1.60000002 
-1.20000005 -5.5 -1.5 
-1.10000002 -5.5999999 -1.60000002 
-1.10000002 -5.5999999 -1.5 
-1.10000002 -5.5 -1.60000002 
-1.10000002 -5.5 -1.5 
-1.20000005 -5.5999999 -1.39999998 
-1.20000005 -5.5999999 -1.30000007 
-1.20000005 -5.5 -1.39999998 
-1.20000005 -5.5 -1.30000007 
-1.10000002 -5.5999999 -1.39999998 
-1.10000002 -5.5999999 -1.30000007 
-1.10000002 -5.5 -1.39999998 
-1.10000002 -5.5 -1.30000007 
-1.20000005 -5.5999999 -1.20000005 
-1.20000005 -5.5999999 -1.10000002 
-1.20000005 -5.5 -1.20000005 
-1.20000005 -5.5 -1.10000002 
-1.10000002 -5.5999999 -1.20000005 
-1.10000002 -5.5999999 -1.10000002 
-1.10000002 -5.5 -1.20000005 
-1.10000002 -5.5 -1.10000002 
-1.20000005 -5.5999999 -1 
-1.20000005 -5.5999999 -0.900000036 
-1.20000005 -5.5 -1 
-1.20000005 -5.5 -0.900000036 
-1.10000002 -5.5999999 -1 
-1.10000002 -5.5999999 -0.900000036 
-1.10000002 -5.5 -1 
-1.10000002 -5.5 -0.900000036 
-1.20000005 -5.5999999 -0.800000012 
-1.20000005 -5.5999999 -0.699999988 
-1.20000005 -5.5 -0.800000012 
-1.20000005 -5.5 -0.699999988 
-1.10000002 -5.5999999 -0.800000012 
-1.10000002 -5.5999999 -0.699999988 
-1.10000002 -5.5 -0.800000012 
-1.10000002 -5.5 -0.699999988 
-1.20000005 -5.5999999 -0.600000024 
-1.20000005 -5.5999999 -0.5 
-1.20000005 -5.5 -0.600000024 
-1.20000005 -5.5 -0.5 
-1.10000002 -5.5999999 -0.600000024 
-1.10000002 -5.5999999 -0.5 
-1.10000002 -5.5 -0.600000024 
-1.10000002 -5.5 -0.5 
-1.20000005 -5.5999999 -0.400000006 
-1.20000005 -5.5999999 -0.300000012 
-1.20000005 -5.5 -0.400000006 
-1.20000005 -5.5 -0.300000012 
-1.10000002 -5.5999999 -0.400000006 
-1.10000002 -5.5999999 -0.300000012 
-1.10000002 -5.5 -0.400000006 
-1.10000002 -5.5 -0.300000012 
-1.20000005 -5.5999999 -0.200000003 
-1.20000005 -5.5999999 -0.100000001 
-1.20000005 -5.5 -0.200000003 
-1.20000005 -5.5 -0.100000001 
-1.10000002 -5.5999999 -0.200000003 
-1.10000002 -5.5999999 -0.100000001 
-1.10000002 -5.5 -0.200000003 
-1.10000002 -5.5 -0.100000001 
-1.20000005 -5.4000001 -1.5 
-1.10000002 -5.4000001 -1.60000002 
-1.10000002 -5.4000001 -1.5 
-1.20000005 -5.4000001 -1.39999998 
-1.20000005 -5.4000001 -1.30000007 
-1.10000002 -5.4000001 -1.39999998 
-1.10000002 -5.4000001 -1.30000007 
-1.10000002 -5.30000019 -1.30000007 
-1.20000005 -5.4000001 -1.20000005 
-1.20000005 -5.4000001 -1.10000002 
-1.20000005 -5.30000019 -1.20000005 
-1.20000005 -5.30000019 -1.10000002 
-1.10000002 -5.4000001 -1.20000005 
-1.10000002 -5.4000001 -1.10000002 
-1.10000002 -5.30000019 -1.20000005 
-1.10000002 -5.30000019 -1.10000002 
-1.20000005 -5.4000001 -1 
-1.20000005 -5.4000001 -0.900000036 
-1.20000005 -5.30000019 -1 
-1.20000005 -5.30000019 -0.900000036 
-1.10000002 -5.4000001 -1 
-1.10000002 -5.4000001 -0.900000036 
-1.10000002 -5.30000019 -1 
-1.10000002 -5.30000019 -0.900000036 
-1.20000005 -5.4000001 -0.800000012 
-1.20000005 -5.4000001 -0.699999988 
-1.20000005 -5.30000019 -0.800000012 
-1.20000005 -5.30000019 -0.699999988 
-1.10000002 -5.4000001 -0.800000012 
-1.10000002 -5.4000001 -0.699999988 
-1.10000002 -5.30000019 -0.800000012 
-1.10000002 -5.30000019 -0.699999988 
-1.20000005 -5.4000001 -0.600000024 
-1.20000005 -5.4000001 -0.5 
-1.20000005 -5.30000019 -0.600000024 
-1.20000005 -5.30000019 -0.5 
-1.10000002 -5.4000001 -0.600000024 
-1.10000002 -5.4000001 -0.5 
-1.10000002 -5.30000019 -0.600000024 
-1.10000002 -5.30000019 -0.5 
-1.20000005 -5.4000001 -0.400000006 
-1.20000005 -5.4000001 -0.300000012 
-1.20000005 -5.30000019 -0.400000006 
-1.20000005 -5.30000019 -0.300000012 
-1.10000002 -5.4000001 -0.400000006 
-1.10000002 -5.4000001 -0.300000012 
-1.10000002 -5.30000019 -0.400000006 
-1.10000002 -5.30000019 -0.300000012 
-1.20000005 -5.4000001 -0.200000003 
-1.20000005 -5.4000001 -0.100000001 
-1.20000005 -5.30000019 -0.200000003 
-1.20000005 -5.30000019 -0.100000001 
-1.10000002 -5.4000001 -0.200000003 
-1.10000002 -5.4000001 -0.100000001 
-1.10000002 -5.30000019 -0.200000003 
-1.10000002 -5.30000019 -0.100000001 
-1.20000005 -5.20000029 -0.900000036 
-1.10000002 -5.20000029 -1 
-1.10000002 -5.20000029 -0.900000036 
-1.20000005 -5.20000029 -0.800000012 
-1.20000005 -5.20000029 -0.699999988 
-1.10000002 -5.20000029 -0.800000012 
-1.10000002 -5.20000029 -0.699999988 
-1.10000002 -5.0999999 -0.699999988 
-1.20000005 -5.20000029 -0.600000024 
-1.20000005 -5.20000029 -0.5 
-1.20000005 -5.0999999 -0.5 
-1.10000002 -5.20000029 -0.600000024 
-1.10000002 -5.20000029 -0.5 
-1.10000002 -5.0999999 -0.600000024 
-1.10000002 -5.0999999 -0.5 
-1.20000005 -5.20000029 -0.400000006 
-1.20000005 -5.20000029 -0.300000012 
-1.20000005 -5.0999999 -0.400000006 
-1.20000005 -5.0999999 -0.300000012 
-1.10000002 -5.20000029 -0.400000006 
-1.10000002 -5.20000029 -0.300000012 
-1.10000002 -5.0999999 -0.400000006 
-1.10000002 -5.0999999 -0.300000012 
-1.20000005 -5.20000029 -0.200000003 
-1.20000005 -5.20000029 -0.100000001 
-1.20000005 -5.0999999 -0.200000003 
-1.20000005 -5.0999999 -0.100000001 
-1.10000002 -5.20000029 -0.200000003 
-1.10000002 -5.20000029 -0.100000001 
-1.10000002 -5.0999999 -0.200000003 
-1.10000002 -5.0999999 -0.100000001 
-1.10000002 -5 -0.200000003 
-1.10000002 -5 -0.100000001 
-1 -6.4000001 -1.60000002 
-1 -6.4000001 -1.5 
-1 -6.30000019 -1.60000002 
-1 -6.30000019 -1.5 
-0.900000036 -6.4000001 -1.60000002 
-0.900000036 -6.4000001 -1.5 
-0.900000036 -6.30000019 -1.60000002 
-0.900000036 -6.30000019 -1.5 
-1 -6.4000001 -1.39999998 
-1 -6.4000001 -1.30000007 
-1 -6.30000019 -1.39999998 
-1 -6.30000019 -1.30000007 
-0.900000036 -6.4000001 -1.39999998 
-0.900000036 -6.4000001 -1.30000007 
-0.900000036 -6.30000019 -1.39999998 
-0.900000036 -6.30000019 -1.30000007 
-1 -6.4000001 -1.20000005 
-1 -6.4000001 -1.10000002 
-1 -6.30000019 -1.20000005 
-1 -6.30000019 -1.10000002 
-0.900000036 -6.4000001 -1.20000005 
-0.900000036 -6.4000001 -1.10000002 
-0.900000036 -6.30000019 -1.20000005 
-0.900000036 -6.30000019 -1.10000002 
-1 -6.4000001 -1 
-1 -6.4000001 -0.900000036 
-1 -6.30000019 -1 
-1 -6.30000019 -0.900000036 
-0.900000036 -6.4000001 -1 
-0.900000036 -6.4000001 -0.900000036 
-0.900000036 -6.30000019 -1 
-0.900000036 -6.30000019 -0.900000036 
-1 -6.4000001 -0.800000012 
-1 -6.4000001 -0.699999988 
-1 -6.30000019 -0.800000012 
-1 -6.30000019 -0.699999988 
-0.900000036 -6.4000001 -0.800000012 
-0.900000036 -6.4000001 -0.699999988 
-0.900000036 -6.30000019 -0.800000012 
-0.900000036 -6.30000019 -0.699999988 
-1 -6.4000001 -0.600000024 
-1 -6.4000001 -0.5 
-1 -6.30000019 -0.600000024 
-1 -6.30000019 -0.5 
-0.900000036 -6.4000001 -0.600000024 
-0.900000036 -6.4000001 -0.5 
-0.900000036 -6.30000019 -0.600000024 
-0.900000036 -6.30000019 -0.5 
-1 -6.4000001 -0.400000006 
-1 -6.4000001 -0.300000012 
-1 -6.30000019 -0.400000006 
-1 -6.30000019 -0.300000012 
-0.900000036 -6.4000001 -0.400000006 
-0.900000036 -6.4000001 -0.300000012 
-0.900000036 -6.30000019 -0.400000006 
-0.900000036 -6.30000019 -0.300000012 
-1 -6.4000001 -0.200000003 
-1 -6.4000001 -0.100000001 
-1 -6.30000019 -0.200000003 
-1 -6.30000019 -0.100000001 
-0.900000036 -6.4000001 -0.200000003 
-0.900000036 -6.4000001 -0.100000001 
-0.900000036 -6.30000019 -0.200000003 
-0.900000036 -6.30000019 -0.100000001 
-1 -6.20000029 -1.60000002 
-1 -6.20000029 -1.5 
-1 -6.0999999 -1.60000002 
-1 -6.0999999 -1.5 
-0.900000036 -6.20000029 -1.60000002 
