ply
format ascii 1.0
comment created by gply, a Houdini tool.
comment converted from .[b]geo
comment for more information about Houdini, try:
comment www.sidefx.com
element vertex 1309
property float x
property float y
property float z
element face 0
property list uchar int vertex_indices
end_header
0.319084167 2.75887442 0.469953537 
-0.191009432 3.0284071 -0.395650089 
0.802290022 4.52772331 -1.00219131 
-1.09739971 1.69155645 0.508108139 
0.909841657 0.963908672 -1.08367896 
0.320289701 5.66375256 0.788141966 
-0.835296273 2.30612063 -0.162804514 
-0.760175943 4.75202417 1.12617517 
-0.583694577 5.13771296 -1.27260256 
1.1118834 5.59306955 0.0545453951 
-0.905894697 5.61955881 0.586759508 
0.108135805 4.0349102 -0.999081314 
-0.784923911 5.61883163 0.750555992 
1.33051491 1.33137655 -0.0631336421 
1.20945907 5.46785831 -0.346144259 
-0.0174031481 1.8263098 1.12011778 
-1.23354888 1.49240851 -0.350190222 
-0.901928186 0.402056992 -0.0829256475 
-0.580439031 5.66391706 -0.374259204 
1.24073803 1.41025507 -0.43143329 
-0.879709184 1.83901787 0.733856082 
-0.0102770124 5.0587182 1.36478949 
-0.634912372 1.89056766 0.91711092 
-1.19344187 1.66316009 -0.177773446 
0.224710554 3.01284695 -0.380908579 
0.307880074 3.11068463 0.332891554 
-0.438861042 1.94857132 0.980514765 
-0.369593918 3.84319806 0.824635506 
0.225111276 5.66391945 -0.199849054 
1.12251699 1.10848963 -0.844844699 
-0.509114206 4.73502445 1.24086261 
0.0176219177 4.4103055 1.20158792 
0.704534948 2.5223527 -0.0724820942 
-1.05614066 4.15804148 0.222598404 
0.514874041 3.26443005 0.0419305339 
-0.143086046 4.02081203 0.989669681 
1.1259222 1.51252401 -0.626934767 
0.64359796 2.14955688 -0.724370241 
-0.579818606 3.56458497 -0.445127487 
-1.2997582 4.76697302 -0.316780895 
0.506788373 3.9701705 0.848466396 
-1.15029502 0.536258817 0.216122821 
-1.2026825 5.16202354 -0.728676558 
-0.949956059 4.73227835 0.970116377 
1.08150041 1.02417302 0.913797438 
-0.922056198 1.96390939 0.55025208 
1.03162432 4.09912682 -0.146898806 
0.837442458 0.657227874 -1.01183486 
1.35919547 5.2855463 0.0120123206 
0.680032909 4.54904079 -1.09242427 
-0.722200453 5.18359756 -1.20282197 
0.0933248475 5.66391802 -0.254951447 
0.469195962 1.58165443 -1.16390777 
-0.0122326249 2.68265843 0.596517324 
0.851024091 2.08210826 0.538645983 
0.800971091 5.6626215 0.431022108 
-0.52254051 3.67522812 0.615428507 
-1.3284936 1.06193256 -0.394880295 
1.00554013 4.06485271 0.212209553 
-1.2575804 1.49972153 -0.186599076 
-0.836824536 1.67041039 0.908159912 
-0.94923377 5.28035116 1.01309776 
-0.946205199 4.86510038 -1.02065372 
-0.223931789 0.460079968 1.02962112 
0.523735464 5.66391706 -0.560336113 
1.30088985 1.34086323 0.27075097 
0.158815563 2.40760088 -0.771671176 
-0.786414623 2.38219571 0.16614531 
-0.843678355 1.69764185 0.884315848 
-0.291272432 3.33384013 -0.489449084 
-0.383973926 3.33083725 0.415920675 
0.00982940476 4.96231127 -1.36404395 
0.00553686032 0.384435982 0.342161059 
0.0594625324 0.58754003 -1.23001349 
-1.00785017 5.49817514 0.733219504 
-1.27452087 4.60682535 0.135241613 
0.472308099 2.15003633 0.838984013 
1.0343262 5.33180618 -0.892039597 
-0.36511296 1.56952357 1.19936478 
-1.14877009 4.34384823 0.236433059 
-0.976640046 5.19768763 1.02019417 
0.530309796 3.88136506 0.770888805 
-0.66652739 2.49034357 0.326891214 
0.445294261 5.43856525 1.2059797 
1.11817467 4.87393951 -0.829473913 
-0.469295144 4.68831158 1.23834884 
-0.0821897984 2.85097647 -0.488716006 
-0.202075258 2.33433676 -0.809839606 
1.26043177 5.45568371 0.0385276154 
-0.8565045 1.02135992 1.12234819 
-1.36274672 5.21974611 -0.100009754 
-0.696249843 5.60545254 0.861257613 
1.03078961 1.52521729 0.780630469 
0.93018651 1.13248038 1.0563606 
0.248333126 1.3619647 1.29739821 
0.528973579 0.734883487 -1.23427689 
-0.558425486 5.13510847 -1.28320432 
-0.840244412 0.994869709 -1.13441205 
1.19668555 0.753924012 0.643569469 
-0.843710065 2.08352804 0.550427914 
0.748652935 3.99109745 -0.673037887 
1.02541804 1.83944845 -0.478398889 
0.817137837 2.25520253 0.350928962 
-0.355995893 5.66391754 -0.562994957 
-0.777841926 2.16240191 0.565080464 
-0.0131611926 3.37703896 -0.588218093 
0.268075466 0.74027884 1.30934262 
-0.636400223 5.51099777 1.04974854 
-0.758785367 2.07118559 -0.679557443 
1.28921461 4.96673918 -0.522154152 
0.810104132 5.4465332 1.00722873 
1.23501742 5.20270824 0.64722234 
0.887504041 0.403949112 0.260246933 
-0.0194005556 3.97050905 -0.966673434 
1.03555775 0.502814293 -0.48061353 
0.721769154 2.49246359 -0.119316414 
-1.15676546 0.602140248 -0.484066367 
-0.777925491 2.27176738 0.417551666 
0.579093397 3.72630882 0.612431765 
-0.695031524 0.605339706 1.0605582 
0.139077693 0.384436011 0.558043778 
0.78291142 4.37310934 -0.926717401 
0.837511063 2.29428005 -0.191713721 
-1.16500342 4.67634058 -0.640111923 
-1.16961706 1.71466279 0.179789901 
0.741876245 1.08177042 -1.1939795 
1.29481149 4.9734292 0.506943047 
-0.437170327 2.73882008 0.389279276 
-0.517064691 1.85198545 -1.0012089 
-0.808920383 1.5861665 0.978763402 
0.986050069 1.99690044 0.33085978 
0.137392074 4.68822527 -1.30083096 
-0.0615678281 4.47508144 -1.22544742 
0.277167737 3.3917582 0.541955829 
0.324810714 5.66391468 0.475146592 
-1.00891733 5.61782551 0.370956033 
-0.607240915 3.64534926 0.500114977 
-0.38130942 2.91087914 -0.287463516 
-0.388060004 0.384434938 -0.15347068 
-1.05852592 1.91343212 0.222240388 
-0.738241553 5.66391325 -0.0125092361 
0.0619832426 4.10089827 -1.03624749 
-0.335900962 5.17724323 1.33980942 
-0.51028204 0.493068457 1.00595272 
-0.999735296 5.38280487 -0.888596177 
-0.135369062 5.66391325 -0.616583645 
-0.695573986 2.29924202 0.522894382 
0.53675437 5.60836267 -0.953996539 
-1.30605984 1.28372097 0.331507027 
-0.0767586827 1.8747611 -1.0946331 
-0.708249092 3.71936965 0.43592298 
0.471264124 1.18961668 1.29161572 
0.397248417 5.66391897 0.528900743 
0.667346895 5.51466465 -1.02856421 
0.639660001 3.53322983 -0.296524823 
0.712953687 1.17064619 1.19477439 
0.0987737253 4.94120026 1.36261678 
-0.887688935 0.694433093 1.00481606 
-0.418507367 2.05299187 0.9259184 
1.05612159 4.73232031 -0.848763287 
0.400107622 3.8556807 0.820090115 
0.0952673927 2.03900146 -1.00570858 
0.781834722 1.52353239 1.03071451 
0.616753221 0.921342373 1.25652182 
-0.227454931 5.66390514 0.7635355 
-0.037715964 0.384434521 0.412482709 
0.770530999 1.40598679 -1.09211302 
-0.513545275 3.26822686 0.081196852 
-0.0033012135 2.44367623 0.758362293 
0.375724524 4.38501453 -1.13946331 
1.36358166 1.1438725 0.0621275008 
1.08784175 5.59246111 0.22630702 
0.499362081 2.84252 0.0210800152 
0.00939718168 2.00077677 1.03138089 
-1.06611609 1.89366233 0.240867153 
0.0711499602 1.63765872 1.21220756 
0.0880026668 1.35337687 1.31369853 
-0.661763191 3.83390141 0.632631302 
0.345636934 5.59075642 1.06182325 
0.00599547382 2.57921076 -0.667647004 
-0.280811489 4.82514954 1.32119107 
-0.943117738 4.39272976 -0.777557969 
0.860413551 5.49566269 -0.905181289 
0.846007526 2.30838919 -0.0390571952 
0.769173265 4.55798817 1.04147947 
-0.0839910954 3.2059617 -0.479303598 
1.30539978 4.66746521 0.0518153533 
-0.385775566 5.34115124 -1.28194118 
-0.40378356 5.66391659 0.570487976 
0.730858147 5.31304502 1.15762544 
0.309419543 0.384436846 -0.480890572 
0.528929949 2.57746601 -0.453823775 
0.442184299 0.384435713 -0.0456643328 
0.629996419 0.476637721 -0.907141805 
0.494400769 0.58217752 1.13303661 
-0.527303398 1.98855948 -0.918685257 
0.780668914 5.66361809 0.373842776 
-0.807373524 2.35639191 0.135063976 
0.581831217 5.64603233 0.841947198 
-1.27830672 1.08711314 -0.555616736 
0.732018948 0.600320518 -1.03100777 
-0.580216646 4.10093451 -0.895108581 
0.175744072 1.86194921 1.09445095 
0.0216185469 4.13714314 -1.05846429 
-0.316324025 0.384435952 -0.552154362 
1.0862385 1.29215097 -0.838705301 
1.25614882 1.52808738 -0.0906727538 
-1.09011197 1.71341372 -0.495500684 
-0.870905519 2.15283537 -0.393858492 
1.13093257 4.57314348 0.627513945 
-0.962051392 0.536833644 -0.714012802 
-0.261837244 5.66391754 0.087577939 
-0.0929811299 0.584264219 -1.22237945 
-0.721440017 1.27195382 1.16742241 
-0.596752882 4.4417429 -1.08281493 
-1.34482527 5.34088802 -0.027763322 
-0.13346377 5.09261656 1.3646307 
-0.663004756 2.565166 -0.179140493 
0.545592248 2.42010546 0.586989105 
0.286744326 4.60510826 -1.2540617 
-0.723774791 3.92497778 -0.643915176 
-1.31464803 5.13607597 0.453854799 
0.697292626 4.28318024 -0.934271991 
-0.915330112 0.918121219 -1.0751555 
0.380398929 1.6881721 1.13982308 
-0.72142607 0.414539129 -0.636066079 
-1.14170516 5.04852867 -0.831527054 
0.130760401 5.50501108 1.20897245 
0.176136166 1.35535383 1.30630338 
-0.658745706 2.26777458 -0.597768724 
1.03038752 5.59632015 0.410704315 
0.658418357 2.53731298 0.2623429 
-1.2515769 4.83626986 -0.556779861 
0.271287322 4.94540119 -1.35066533 
0.516398549 3.31805634 0.203600526 
0.545696855 5.18979502 1.28068256 
-0.823028088 1.70618427 0.897055864 
0.361724079 0.384436369 -0.562707067 
-0.55275929 4.80508709 -1.24507046 
-0.0538235232 1.86681485 -1.09916365 
0.573838472 0.533371806 -1.03983247 
-0.728798985 5.46252251 -1.0505439 
-1.15824318 1.34544969 0.693568945 
-1.04439259 0.482309908 -0.353204906 
0.110832796 3.52169871 0.677879691 
0.00236352254 3.34320736 0.565343082 
-0.568651855 5.66377068 0.632499456 
0.767928839 0.555883527 0.948300958 
1.26983261 4.58154345 0.0605400279 
0.136957318 0.985578656 1.36465526 
0.0813274458 5.03075123 -1.36465311 
-0.629496515 5.66390705 0.486918509 
-0.811923146 0.438417166 -0.622183502 
1.3369987 4.74619675 -0.00945071504 
0.0193425268 4.08465242 -1.02782285 
-1.17029881 0.546185076 0.147024319 
0.313270926 5.66391659 -0.0791175291 
-1.30108249 0.929384351 -0.499745011 
0.604631245 2.28868556 0.635186911 
0.341501564 3.70092487 -0.739966214 
-0.390246749 2.92711639 0.259916663 
0.0618750267 2.80071259 0.520786583 
0.67819798 4.02366447 -0.769833028 
-1.1971879 4.48074532 -0.323478311 
-1.08020675 1.32834375 -0.831279933 
-1.09918451 5.59416485 -0.144906223 
0.747053385 2.40178537 0.272058547 
-0.152086139 5.66391468 -0.185675144 
0.7606529 0.43484363 -0.674497604 
-0.566337764 5.66391468 -0.467613578 
0.5657233 1.00292063 1.28227997 
0.606037378 2.15378523 0.753901839 
0.56053561 2.69110584 0.230102926 
0.472524434 2.09223199 -0.878177345 
-0.310219377 1.36260712 -1.28854656 
0.855276167 5.16565323 1.12004352 
-0.582806945 2.49369001 0.473376274 
-0.661309361 3.48868561 0.0134944012 
0.914167285 0.582026184 -0.854861915 
0.0745447129 1.45166445 1.28366089 
-0.242470846 5.66386652 0.782580256 
1.36272144 0.914400756 -0.190665185 
0.472643852 1.68597555 1.11374366 
-0.976124108 3.98839331 0.0328102335 
-1.27851951 4.75966358 0.398603439 
-0.17306909 5.30145645 -1.33615923 
-0.566182852 5.66391706 -0.345360219 
-1.07501376 4.9414444 0.904327035 
1.17133129 4.35601187 -0.0957027376 
-0.624244332 4.98798943 -1.25054979 
-0.491979808 3.22136331 -0.0270195063 
-0.718862951 1.79948139 0.917728186 
-1.2472856 1.17064667 0.596993566 
-1.22365522 0.758501172 -0.584617496 
-0.629672945 5.01020813 1.25084782 
-0.057177268 5.6639185 -0.548198283 
-0.88565433 5.64012337 0.540412188 
1.0578407 0.469003826 -0.0832421929 
1.3002485 4.75467396 0.298325539 
1.20433688 4.59138632 -0.464762628 
-1.32218432 5.13737392 -0.42397356 
-1.06594205 4.90946388 0.906693161 
-0.754117668 3.68965173 0.28001824 
-1.08729947 5.40472174 -0.753507376 
-0.501606107 2.19104528 0.794430614 
-0.105465442 3.35248923 -0.564722478 
-1.3349669 0.802932024 0.26522094 
-0.60683167 3.99678898 -0.806860089 
-1.35645247 1.06206894 0.277653009 
-0.774912775 5.40303087 1.07468104 
-0.371151447 0.830297232 1.31924796 
-1.17183721 1.20600474 -0.74261564 
0.54152292 1.33108401 -1.22918546 
1.28212214 1.10969162 0.537118256 
0.607783675 5.6605134 -0.725284874 
-0.446156979 1.32407224 1.2647301 
-0.772439182 4.09053469 0.733662486 
1.03046298 1.80196857 0.514710486 
-0.129431412 5.66391373 -0.588129818 
0.362004876 5.50585461 1.16818595 
-0.955644011 4.33648968 0.713619411 
1.28554928 0.703190207 0.292542785 
1.25266981 1.35540628 -0.452129751 
0.956100643 0.429972112 -0.275269747 
-1.11345935 0.781862915 0.812439859 
-1.14986038 5.45993185 -0.541485786 
0.571807504 3.93646598 -0.78543818 
0.170401007 5.04975414 -1.36426651 
-1.17225218 1.55557871 0.476846546 
0.129607841 1.8068856 1.12760043 
-0.746940076 3.68379974 -0.290412843 
0.091807209 0.66532737 -1.28693485 
-0.393724591 3.00589061 -0.201819405 
1.05805993 1.21002614 0.905774593 
-0.0246188231 0.476551116 -1.07722759 
0.933641315 3.94888687 0.232512623 
-0.178648099 4.28065205 -1.12429547 
0.887759924 2.24069238 0.0122265462 
-0.58316505 5.66391611 -0.0700549334 
1.0432936 5.54737329 -0.555570543 
0.863018572 5.54720068 -0.82319504 
0.482260019 2.30344701 -0.720274806 
-0.655405402 3.95704412 0.737962008 
0.438461006 1.71709967 -1.10856962 
-0.529509246 2.65927339 -0.354459286 
0.670701027 5.55209827 0.974576831 
0.058910843 5.6639185 0.506697595 
0.454688609 1.94351161 -0.977336884 
-0.0814443976 3.55553579 0.702981532 
1.19527888 0.599571347 0.351743519 
-0.236554801 5.43150806 1.26169705 
0.812886357 1.42680728 -1.05440533 
-0.116106465 2.25120401 -0.875888824 
0.354004174 3.49435472 0.582495332 
-0.633934855 5.44442415 1.11959839 
-0.6072281 4.76368523 1.20983946 
-0.0743427873 5.6638937 0.809012651 
1.2005316 1.58354402 -0.334112138 
-1.16755831 5.28505039 0.734436512 
0.974105537 5.14201641 1.03405142 
-1.27381802 4.70553732 0.35141474 
-0.2900002 5.66391325 0.443004608 
-1.35635114 4.87809706 -0.11301662 
-0.810422063 2.07136917 0.614499629 
-0.670302153 1.19513917 1.21030474 
-0.600724995 3.80353498 0.66352278 
0.553072512 4.46835804 1.11667681 
-1.08812642 1.52472997 -0.69316566 
0.935606241 4.50805187 0.869861245 
0.186973885 1.82721162 1.1120559 
0.337711155 5.52538776 -1.15302086 
1.08093655 4.21545601 0.257987022 
1.17403209 0.568491757 0.313567698 
-0.924019217 5.6581769 0.247723162 
0.619271874 1.32762718 -1.19833529 
-0.542754412 5.6638813 -0.622211039 
0.727086008 0.752670646 -1.15478146 
0.813994527 4.40045071 -0.918484926 
-0.818717122 0.444008201 0.636688471 
-1.09120274 0.522314548 0.406292111 
-0.0222100392 4.312953 1.15669966 
0.0915840641 0.698247015 1.30616999 
-1.33434904 4.77983379 0.136028618 
-0.563455582 4.07515621 0.88835001 
-0.625578403 1.23094249 1.22204137 
0.295979202 3.83634925 0.846501172 
-0.583662331 4.50626659 1.1208111 
-0.674495399 5.6639185 -0.376063764 
0.0338099822 5.66391659 0.649287462 
0.424601912 3.57917118 -0.607423663 
-0.5294348 4.10734653 0.925985038 
0.0542303883 3.56715536 0.71227777 
0.68320775 1.18493295 -1.20664883 
-0.537115991 4.689641 -1.21603107 
0.199480981 3.03462791 -0.39146632 
0.592797697 0.409515113 -0.736202061 
-0.79659754 0.445828259 0.674216151 
0.0817133412 2.63834429 -0.625053465 
-0.179573834 2.28384352 -0.8464728 
-1.0838542 5.01036358 -0.90790695 
-1.14780104 0.527066529 -0.123742126 
-0.229286879 5.45478535 1.24504316 
-0.501161516 1.59066391 1.14835858 
1.11850476 1.37746632 -0.746489227 
-0.224774569 0.410042286 -0.916858077 
0.726794243 4.94216681 1.19336557 
0.758978486 1.42844021 1.08995759 
-0.926751018 3.99850988 0.367164224 
0.909024715 1.84397197 0.690864563 
0.145360112 0.384438127 -0.448322624 
-0.35494864 4.52797604 1.20886302 
0.71974206 0.916454673 1.20616901 
0.93048954 4.63777876 -0.945680976 
-0.720726728 0.716311157 -1.13960326 
-0.693145752 4.517591 -1.06993353 
1.22877169 1.44130313 0.436173886 
0.503819585 2.30881453 0.701615512 
1.11583745 1.53661501 -0.629087031 
1.00610864 5.61477566 -0.394022256 
-0.669415951 4.28917742 -0.95800662 
-0.14743863 3.58760953 0.716253161 
1.22814906 1.31151915 0.559503913 
0.230925322 1.80868816 -1.11409998 
0.600047171 0.520564198 1.00739753 
-0.77981174 3.85154891 -0.476551503 
0.551694572 3.97120667 0.824272335 
0.121502593 2.60894656 -0.642386138 
-1.24284744 5.18518734 0.636757255 
0.926717162 1.22178364 -1.03863645 
-0.731573701 1.22455239 -1.17347598 
1.33650732 1.30508161 0.085745573 
-0.659666598 4.09065294 0.835350633 
1.27934241 1.24469888 0.470234156 
-0.291040748 0.384453028 0.629587531 
-1.32858145 5.19641447 0.368671477 
-0.694678307 2.34767056 0.470276326 
-0.672080636 5.19267464 -1.22530329 
0.202928722 3.2715342 0.485105395 
0.723630428 5.5609808 0.921905637 
-0.894940019 4.29481411 -0.759406984 
0.63578999 2.59303617 0.212995559 
-0.487602085 5.23096657 -1.29225445 
-0.238521755 0.95459795 1.36174273 
-0.853310525 0.401840568 0.326447994 
-0.806159139 2.35058331 0.168547556 
0.219695881 4.37046289 1.16450691 
1.33725202 5.22207212 -0.31283927 
1.24640298 4.58199883 -0.279952735 
0.620513618 3.82523346 0.665060401 
0.143618882 2.38899231 -0.785789251 
0.78007102 5.25224924 -1.15215576 
-1.27124143 4.99994135 0.579505146 
1.05412817 4.17462969 -0.284652799 
1.31496096 4.72023344 0.138876706 
-1.03186738 0.799789965 -0.930724323 
0.780500054 3.6901443 0.176339254 
1.2638557 4.92758322 0.573135018 
-1.05838943 5.53037024 0.571106195 
-0.16998297 1.11969018 -1.36113262 
0.591255665 1.27127433 -1.22660983 
-0.408533692 5.59947109 1.02633262 
-0.623850465 2.59489608 0.24807623 
-0.945796013 0.519756615 0.696632802 
0.914739192 0.723150611 1.00376344 
0.893382609 2.00462031 0.555207193 
0.400117397 2.98999023 -0.193981603 
-0.606953681 2.31598401 -0.611469507 
-0.614405692 3.43496013 0.143748999 
0.171110108 5.32811165 -1.32651782 
1.02489471 5.59347725 0.435577393 
0.470554143 3.25897932 0.218417764 
0.174882397 2.01843882 1.00682044 
0.46316272 4.35847187 1.09977746 
1.34037066 1.17570329 0.280056745 
-1.03398132 1.96866405 0.182405055 
-1.31026077 5.24937153 0.399136871 
1.18340373 4.70136738 0.619690835 
1.1160394 1.82986355 0.125699654 
0.611201525 5.66391468 0.182542413 
0.478582233 2.50276613 0.571428895 
-0.589923859 4.55332184 1.14032078 
0.442424119 5.66391373 0.327823907 
0.199099422 2.20935011 0.89055568 
1.1474694 1.77038586 -0.101850815 
1.36477017 5.13648033 0.0295550227 
-0.480425894 5.66125774 -0.802505493 
0.524115622 0.942559719 1.2951895 
0.0834603906 3.69459796 -0.795197725 
-0.445941359 0.387319505 -0.702979803 
0.796917796 1.90721059 -0.768551052 
-0.395029724 2.13634324 -0.88133198 
-1.17265904 1.42562127 0.597982645 
-0.447381616 1.62414598 -1.15220451 
-0.778617263 4.02999735 -0.673875451 
-0.34245494 2.134027 0.901639581 
-1.07075703 1.75083387 -0.490027726 
0.97931838 5.08094978 -1.03288996 
1.32871628 0.912840486 -0.393602759 
0.916666448 5.66198778 -0.0679391772 
-0.766199231 0.428108424 0.640599072 
-0.356515229 0.384435177 0.16104123 
0.712829947 3.64433217 0.310625255 
-1.25348353 0.620973945 0.115962848 
1.05127883 4.20497894 0.361168325 
-0.967422187 3.97441864 -0.0789579749 
-0.425952762 2.84945536 -0.27717492 
0.289783597 4.02778387 0.96796453 
1.22916389 4.84921741 -0.617525518 
0.881256461 2.05707049 -0.512932837 
0.191833481 4.37537956 1.17032099 
1.05488896 5.58944988 0.37305519 
-0.426386088 4.82939959 -1.29046619 
0.949693799 2.1167438 0.175957412 
-0.427048057 4.15611362 1.00077999 
-0.310609728 2.36208844 0.76003325 
-0.17065075 1.64434958 -1.20282423 
-0.582174361 2.06768417 -0.834980547 
-0.0984762609 0.384435117 -0.168674111 
-0.0504140779 3.86783791 0.903845787 
0.338832915 0.469169676 1.02309394 
-0.00857405551 4.25840187 -1.12961423 
-0.391882777 4.76534986 1.28194451 
0.514749289 2.74345255 -0.248482749 
-0.519727647 0.600516558 1.14211452 
-0.401928991 4.87411451 -1.30586886 
0.18040365 0.891138434 -1.36128163 
-0.509984612 5.30632544 1.26182997 
1.20582855 0.628830075 -0.403779805 
0.326767325 2.58124733 -0.602365077 
-0.541259527 5.27778196 -1.26126337 
0.771982074 3.65647459 -0.0392903239 
-0.17142421 0.384434015 -0.370132089 
0.654421866 4.62931156 1.14082694 
0.370245785 5.66391945 -0.546690106 
-0.541231573 5.66391659 -0.471466601 
0.0904680714 3.37540126 -0.5819875 
-0.155506447 5.47061777 -1.24017024 
0.257498384 3.02757263 -0.360844791 
-0.366697192 5.40630722 1.25036216 
-0.197560057 1.80516326 1.12158966 
0.969660997 4.06626225 -0.361838281 
-0.960128188 2.01736641 0.381399721 
-1.00120533 2.04407072 0.108996361 
-0.783887029 3.73261261 0.2752226 
0.0801655799 2.18733072 -0.917077363 
-0.0255292878 3.58114052 0.722265005 
-0.297751784 5.32563591 1.30749583 
-0.714615345 1.68227005 0.996670961 
-0.961876631 4.50028944 0.83465147 
-0.19888328 2.4710288 0.722106159 
1.24031425 1.49043846 0.319432527 
1.03378177 4.76338148 0.891610384 
0.252428263 2.40525198 -0.750892758 
0.103827082 1.13636696 1.36177087 
1.15061843 4.55884123 -0.572270334 
0.579124033 1.38160706 -1.19730294 
0.385873735 1.66329193 -1.15050018 
0.58900106 5.59447956 -0.951628804 
-1.29585314 1.42727768 0.000612047501 
-0.774636269 2.41717768 -0.0515188873 
0.346265942 0.455180675 -0.992499173 
-1.01196384 0.713116765 -0.895929873 
-0.496845692 2.79849029 0.185536996 
0.528193057 0.828833938 -1.27200031 
0.455626428 2.92901993 0.0347346626 
0.550158203 2.7418642 0.11946629 
0.44027406 5.49411297 -1.15633142 
0.888366461 4.59615898 -0.965149045 
-0.468958259 3.98075771 -0.873730421 
0.86054486 5.61386156 -0.673999429 
0.684521735 5.66388416 -0.445496559 
-0.358564228 1.29801333 1.29697585 
0.407315522 0.667020798 -1.23354018 
-1.31588936 5.14475536 -0.446823806 
-1.30581987 5.21847582 0.444092751 
-1.05084693 5.36723423 -0.843082547 
0.91776365 5.42489147 0.933116555 
-0.646984398 4.27369404 -0.963919222 
0.0294793714 1.49881983 -1.268736 
0.737161994 0.633063555 -1.06077206 
-1.1033529 5.11038399 0.886867762 
-0.473413229 1.07191336 -1.30682755 
-0.547077775 0.939222097 -1.2873919 
0.59727186 2.64522171 -0.221320823 
0.288289785 4.18000317 1.05617797 
0.870388269 2.13614559 0.423348188 
0.858294845 0.414162993 0.41111511 
0.885726511 1.88754034 0.68283397 
1.09127104 0.82790041 -0.866572678 
-1.20014286 1.27421784 0.651181817 
1.2724483 0.810395062 0.510438204 
-0.419384569 2.69953108 -0.448012859 
-1.27158856 1.4324733 -0.264371395 
-1.33960402 0.856637716 -0.314241707 
0.182544112 0.654166281 1.26972234 
1.03398478 1.97275233 -0.168625817 
0.75746721 2.24319434 0.496732742 
0.274452507 3.44494629 -0.583796382 
0.557502747 1.65387702 -1.09717131 
-1.25161266 1.10849059 -0.612172425 
0.0647327676 5.58977985 -1.11561 
-1.11100149 1.40628088 -0.739724398 
-1.24147475 1.26206231 0.560110509 
-1.08661413 0.819824755 -0.869488835 
0.222948432 0.990690231 -1.36314428 
-1.35500062 5.27385855 -0.134967893 
-0.17834194 1.48008072 1.26552415 
0.388299912 2.95782614 -0.239931956 
0.884177208 2.09780312 0.450176239 
-0.429094225 5.66389036 0.693049371 
-0.254091054 4.52145386 1.22801113 
-0.436430216 0.413610905 0.843949676 
-0.327830017 2.76767015 -0.457360715 
-1.34969115 0.810854793 -0.190274343 
0.577747107 5.61255836 0.925553977 
0.259331942 5.66391563 -0.311815947 
-1.27828562 4.62720346 0.176945418 
0.0331904702 0.467562765 1.05937362 
-0.406639129 1.18927407 1.30944049 
0.835412741 4.82813692 1.10093212 
0.979620218 1.62927794 0.777983665 
-1.22159612 5.4328351 -0.407544017 
0.697229803 3.88317442 -0.638146102 
-1.17342484 1.72006202 -0.04771889 
-0.826903641 1.0877732 -1.13817894 
-0.0446305089 1.19760895 -1.3567307 
0.625578761 1.47140813 -1.14269328 
-0.724080086 4.77268696 1.15396857 
-0.0379657634 3.8338201 -0.883422375 
0.869529545 4.60319614 -0.985015988 
-0.926047325 4.39738703 -0.802724183 
-0.99678874 4.11084223 0.359343261 
0.363713443 2.39350462 -0.718627334 
-0.615983367 5.52768898 1.03982449 
1.09136677 5.55399323 -0.41596961 
0.344031036 1.21804297 1.31923914 
-1.25222802 0.608092904 0.00908941682 
1.15494895 1.68566608 -0.323583812 
-0.358490199 5.66391706 0.120803423 
-1.22720003 4.49466038 0.172684073 
-0.66078794 0.891960025 1.23150182 
-0.339969814 1.2529608 -1.3119185 
-0.979734361 4.55077744 -0.845712781 
-1.30712295 5.2456007 -0.415158391 
0.406079292 1.75179052 -1.09996915 
0.793542504 3.80475163 -0.382211834 
-0.947564065 4.03070688 0.364220709 
-0.908603609 4.05124474 0.492741972 
-0.872727156 0.465606749 0.640554905 
-0.547159314 1.80820501 -1.01203203 
-1.23002625 0.908810973 -0.669915974 
1.27222157 4.9522419 0.561019659 
-1.22983205 1.5151695 0.326579034 
0.435612589 5.66391611 -0.197929382 
-0.0186479799 2.11549187 0.964731514 
-0.467184156 3.69352865 -0.670728683 
-0.580170512 0.408440292 -0.741187096 
-0.0292521436 0.70436126 -1.31283569 
0.143112287 4.36145735 -1.16844368 
-0.314296663 5.66391182 -0.710014999 
0.444169879 3.16657615 0.146222487 
0.246989563 4.50886393 -1.22378469 
0.216093555 2.41329885 0.755663276 
-1.09289932 1.42371893 -0.757382572 
1.06055582 1.53486276 0.731140733 
0.061423786 0.38443321 0.654170692 
0.637728214 2.61521792 -0.123912692 
0.970755875 5.37832165 -0.925255656 
-1.30024362 0.78123939 -0.382005155 
0.0795407593 0.90745306 1.36382759 
-0.955928266 2.01995349 -0.389005274 
-0.223896474 2.90769672 0.418801129 
-0.923012912 2.14644957 0.232344836 
-0.930349112 1.87754059 -0.626253545 
0.619266391 4.62315083 -1.15572214 
-0.0627238676 0.384434879 0.154744178 
0.24963212 4.46030283 1.20272577 
0.728999138 5.62606478 -0.785515785 
-1.18621397 4.63342762 0.561690807 
-1.00068498 5.54021978 -0.656361401 
0.128481835 3.31485033 -0.534839571 
1.25358129 4.63542414 -0.337386429 
0.463083744 4.44409323 1.14148033 
-0.320518911 3.2345984 -0.393242925 
-0.992551267 5.59723854 -0.495382965 
1.20854115 1.27333462 -0.631957114 
1.31906712 5.18190956 -0.418090463 
1.19967866 5.00621891 0.732494354 
-1.09729731 0.495560467 0.161694765 
0.663283527 4.35858727 -1.00231409 
-0.530408442 1.91999435 -0.957830548 
0.759630799 5.66389322 0.272892237 
-1.27370584 4.84875011 0.500136852 
0.332898915 1.28410339 1.30561936 
-0.61558032 0.674795449 -1.16361845 
-0.525088549 2.01187205 -0.904850125 
1.00847697 5.07147503 -1.0048368 
0.778012514 2.41246891 -0.0351994485 
0.331239104 0.796837091 1.31923437 
0.209209234 1.78483343 -1.13005507 
-0.0607716702 3.46451473 -0.643554688 
0.584513366 3.38856483 -0.132082 
-1.19654584 1.54611945 -0.412522733 
-1.05139172 5.52045631 -0.611869156 
-0.183684409 1.92352998 1.05944717 
-1.00399923 1.17578685 -0.980934143 
0.806841493 1.3621788 -1.08568442 
-0.583942652 2.10637379 0.807059348 
0.759883642 1.87656057 -0.829247952 
-0.0892865807 4.56787491 1.26280642 
-0.439097673 0.384890139 0.640932739 
-0.764723063 5.10469961 -1.18686891 
0.221347988 1.4303261 -1.27811277 
0.315676987 1.2683928 -1.31284893 
-0.959630311 4.14221525 0.505603373 
-1.29948521 5.0393858 -0.510740161 
-0.715765357 0.593637943 1.03460062 
-0.74354732 2.24748182 -0.513669372 
-0.705857992 0.394705266 0.542639434 
-1.21511722 4.57039738 0.393730998 
0.568376184 0.384436816 -0.159617066 
-1.26822233 4.57646418 0.0468055382 
0.67690587 2.29085112 -0.555351138 
0.240986854 2.45130873 0.723703921 
0.480798244 0.693994522 1.2296052 
0.536794901 3.39214516 0.288168401 
-0.196221977 0.384619504 0.733533382 
0.350147963 4.12333107 -1.00705624 
1.10616004 1.85357904 0.0453957841 
-0.765936375 2.27415657 0.439006388 
-0.663404644 5.55798292 0.969573617 
0.355944693 2.34955788 0.751212358 
0.68939817 5.61255217 -0.851664066 
0.837699413 1.86825359 0.757763803 
1.30489683 1.27059031 -0.353167683 
-1.15623307 1.74462891 0.164425001 
-1.01156855 4.56533051 0.814673066 
-0.736228824 2.44514751 0.210726559 
1.23117507 5.47729206 0.195691019 
0.270395815 1.99378407 -1.00237942 
-0.751711488 4.07204914 0.739900708 
1.26143348 4.56163073 0.0717997029 
0.0952551588 3.44567347 -0.62872982 
-1.30506015 4.9274087 -0.44562453 
-0.0881691128 4.6375227 -1.28918147 
-1.01887286 0.8527143 0.9693892 
-0.0567107014 1.83153284 1.11725104 
1.28190637 0.655038714 -0.101880223 
0.928929806 0.938948154 1.06778467 
0.381023884 5.27248859 1.30839181 
0.91884768 1.76093447 -0.751125634 
0.592470706 2.10320663 0.803631663 
0.808394849 1.32929468 1.09609318 
-0.334520012 1.09110665 1.34176517 
1.25878096 1.30411732 -0.483014584 
0.572620869 5.36708879 1.20742154 
-1.13110113 4.36489677 -0.36938709 
1.08004045 5.24213219 -0.886193752 
-0.399520665 1.41746354 1.24783468 
-0.592915058 0.77999264 1.22948396 
0.353053749 5.57652903 1.08111405 
-1.3515352 5.15628958 0.300698251 
0.41351068 3.27516937 -0.332787305 
0.109449156 2.30886221 0.841074109 
0.504329264 2.42461371 -0.615245759 
0.38381052 3.58976173 -0.640028536 
0.493014514 3.86679482 0.781739652 
-1.22572637 1.50037801 0.370508552 
-0.969807684 0.436437458 -0.281292677 
0.758919477 4.07100058 0.73144424 
1.32773793 1.33127403 -0.0911417007 
-0.992150664 1.6256268 -0.764232278 
-0.0521652885 2.96292114 -0.44243142 
-0.445516944 4.52747631 -1.18349791 
0.502883613 0.474697888 0.974376202 
0.642726779 3.79753709 0.617967069 
-0.650055408 5.10517216 1.24577713 
-0.750998855 4.59936476 -1.07296336 
-0.136764988 1.52047122 1.25503027 
0.533744335 2.70953703 -0.266849816 
0.501028478 2.49246049 -0.563604116 
-0.28237167 3.27346087 -0.448307067 
-0.15757452 2.66421223 0.598232806 
0.108072594 5.07972145 1.36473966 
1.35241771 5.15157509 0.297526836 
-1.15133333 4.39863491 -0.354989767 
-1.12105429 0.52191788 -0.30024606 
-0.579741955 1.54720879 1.13339925 
-0.0467135757 5.54796267 1.16652989 
1.20975327 0.76900351 0.628494442 
-0.458458543 5.57041121 1.05138123 
-0.632506251 3.44988465 -0.0842445046 
-0.192230761 3.24521446 0.471934825 
-0.0596548989 0.450476944 -1.02468491 
-0.0544357672 5.66391945 0.676599324 
-0.561572909 0.384647638 0.513636947 
-0.305752575 3.2103014 -0.387805849 
0.892272353 2.13572931 0.366399407 
0.694710016 3.8325882 0.591735721 
-0.717435777 3.97730327 0.69542551 
-0.0939604044 3.89964557 -0.921026528 
-0.300137043 4.32361841 -1.12711811 
-0.302105546 3.9029696 0.887790799 
-1.18186998 4.4027009 0.202579543 
0.737364113 1.87447965 0.850717306 
0.394390732 3.7963531 0.782649934 
0.722840667 3.64129257 -0.27546382 
-0.339720994 0.779721677 1.31047893 
-0.620984316 0.472906291 -0.904060245 
0.464874446 3.16378069 0.0122758728 
0.247687683 5.65601492 0.939250171 
0.789246857 5.66374826 0.319338351 
0.501517832 3.92621541 0.819967091 
1.36467516 5.13403034 -0.085019365 
0.675258398 5.42437983 -1.11593544 
-1.1973598 4.40668869 -0.0667798668 
0.706407428 1.0165801 1.21896565 
-0.673169374 1.6084125 -1.06246781 
0.589293242 5.04520559 -1.27152395 
-0.137742952 1.22760558 1.34483826 
-0.229140282 5.66391373 0.737398565 
0.522625625 1.7464211 -1.05970752 
0.439843804 3.4444561 0.472052723 
0.752111912 5.5596323 0.901946068 
0.865247846 0.569961429 -0.886099279 
-1.3647027 1.05050206 0.08290039 
-1.36106348 1.06792951 -0.232104957 
-0.973831415 4.24773979 0.606464505 
-0.975547016 0.51871562 0.650580823 
-0.33860305 4.49448395 1.19961202 
-1.14794314 1.11110377 0.808807731 
0.751361728 4.36233521 0.943990469 
0.585990071 4.73666859 1.21088243 
-1.16311789 5.04858923 -0.799608886 
0.497068673 1.93439102 0.96506685 
-0.533631802 1.97820759 0.921929181 
0.40244025 2.28952742 0.772319555 
-0.418879807 3.99714041 -0.905956268 
-0.176556215 2.78956509 0.505403697 
0.757959127 2.13947248 0.615647197 
-0.27867794 5.63597918 -1.00135994 
-0.10852167 0.640364587 -1.26840818 
-0.137499988 5.29955626 -1.34087706 
-1.09423661 4.35601282 0.474693388 
0.351321876 3.30260181 -0.420558155 
-0.0526969433 5.66391611 -0.148526087 
0.021007292 2.56003094 -0.680506289 
-0.759720564 1.90407801 0.80775249 
0.310492843 5.66391516 -0.691113889 
-1.08340049 1.57444572 -0.663378477 
-0.131360799 0.384436667 0.570164502 
-1.03339744 4.23001242 0.459680974 
-0.174599126 5.66391659 0.496992826 
-0.359469473 3.72300291 -0.748172998 
-0.746567249 5.66391182 0.163114876 
1.16248679 1.62928486 0.40360564 
1.3646183 0.916667759 0.0376161225 
-1.30070341 4.72652483 -0.254556566 
-0.524949193 2.26853848 -0.718862414 
-0.984263897 5.53716278 0.690042615 
0.860979557 2.08770442 0.513044357 
-0.647107899 5.66387987 -0.519201756 
0.384130269 1.98133671 0.979863048 
-1.21895504 0.656294167 0.431540906 
0.15246965 4.70466995 1.30498028 
-0.439896345 3.10531998 0.0581761375 
0.756612301 2.09781075 -0.658261836 
-1.33712935 4.77388096 0.105713129 
0.0173537768 3.19387603 0.478903413 
-0.448202968 0.535547376 -1.09497917 
-0.342120886 2.55507016 0.613582253 
-1.22436595 0.609681904 0.246177122 
-1.34153342 1.278072 0.107288234 
0.62472254 0.384493679 -0.361069053 
-1.33791971 5.28971386 -0.219314367 
0.108063295 5.66391516 0.1422005 
-0.334039152 2.93381476 0.329530656 
0.49927783 0.384472996 -0.523688495 
-0.785595834 2.07889414 -0.640853286 
-0.378039449 0.384430647 0.22349751 
0.787203312 5.66385841 0.249939173 
1.35880995 4.84099865 -0.00190589204 
0.0194695368 1.98016834 1.04216683 
0.996779203 0.44179076 -0.1815781 
0.361514747 3.0375638 -0.254967362 
1.33376646 5.33377171 0.153153956 
-1.24757695 5.34904766 -0.493889332 
-0.942948163 1.85103703 -0.631899774 
-0.543112397 5.66391754 0.12300504 
-0.440029949 3.35974073 -0.386925042 
-1.05815172 4.13830662 0.0547000766 
-0.744314611 5.17755747 -1.1916616 
1.3415947 1.00150204 -0.360423803 
-0.759473979 1.29162097 -1.14014959 
0.579778373 0.597582579 1.11343241 
-0.629864931 5.66391468 -0.00102446461 
-1.36424518 4.98923588 -0.0844673812 
0.23815091 4.40033722 -1.17630959 
-0.863354087 4.33772039 -0.829936802 
0.682067156 4.24388647 0.920560241 
-0.107439876 4.17568016 -1.07678235 
-0.571383595 0.420011222 -0.790840745 
-1.01783574 0.896927536 0.983306825 
-0.491694003 5.33042192 1.25766373 
0.581144691 2.5926888 0.352452815 
0.27092737 3.04106355 0.350578427 
-0.169138089 3.47250247 0.635632217 
1.05144465 0.467478991 -0.117973901 
-1.28201067 0.688532829 -0.267171174 
-1.22125554 1.20686078 -0.640284061 
-0.70563215 0.384470284 0.161191463 
1.23669851 4.93442106 0.637125313 
-1.16978979 1.72698247 -0.0705866367 
-0.962154329 1.38693154 0.947750688 
-0.950112402 2.1327939 0.0833839625 
0.174261302 0.387791961 -0.826090991 
0.50824523 4.83082533 -1.26733327 
0.960288525 1.73197794 0.722295523 
-1.2615515 4.67438269 0.361974418 
1.24962115 1.31458211 0.498660982 
-0.454593927 5.65994024 0.830371678 
-0.614950895 1.79018426 -0.98981756 
-0.697167516 2.42523623 0.362193525 
0.0468751527 4.27930737 1.13874316 
1.13962162 4.32278538 0.229975551 
1.11286175 4.24735165 -0.130667359 
1.24038017 4.54444313 -0.230789229 
-0.394140244 0.433068395 -0.920729399 
0.435750306 0.384435058 0.359681219 
-0.283373475 5.66391373 0.317202836 
1.07872629 0.662915945 0.751397252 
1.07255399 4.23070621 -0.33202529 
1.31953013 1.13732994 -0.399707496 
-0.495862544 5.66391754 -0.0501584783 
0.119292796 0.384433419 0.0823958665 
0.359711766 0.384435028 -0.138827607 
0.114176765 1.04293442 -1.3646127 
0.640408993 1.4597832 1.1404531 
-0.470659882 5.40935135 1.21939194 
0.184445083 1.71539402 -1.16868222 
-0.617634416 4.04769707 0.836381435 
0.0160570499 0.38443625 0.412519097 
0.165214792 4.41556931 1.19187307 
0.732897341 4.04688835 -0.737470686 
-0.869417071 2.13920259 -0.420381457 
-1.27853036 5.40042877 0.255366594 
0.973595142 0.871154428 1.02014959 
-1.20059729 4.60643101 -0.496884227 
0.584369123 2.16681457 0.759949446 
0.447205931 4.97772455 1.31175268 
-0.27303648 3.85713267 0.866733551 
0.161054865 5.3646841 -1.31109512 
-0.453163117 1.34807575 1.25468707 
0.65879786 2.5913353 0.0527359955 
-0.558815956 0.691530704 -1.19880998 
-1.36468625 5.11598778 -0.111448511 
0.649390221 0.420937866 0.735294938 
-1.01595104 1.79526019 -0.555025578 
-0.70679462 5.47270918 -1.05334163 
0.354160696 2.43379974 -0.694655538 
0.749935985 3.69915533 -0.311591744 
0.0539205745 0.779266775 -1.34562051 
-0.906333923 3.96639419 0.367895544 
-0.996868074 0.436991602 -0.0240900498 
-1.08896589 1.73407674 0.467792332 
-0.472073704 2.48233271 0.592725992 
0.778673768 5.64073181 0.692319274 
-0.17991668 4.72694969 -1.3092401 
-1.03994536 1.90816319 0.320353955 
0.492103904 5.23067141 1.29092789 
-1.33575654 1.21788788 0.248800233 
-0.559273243 5.05459356 1.28441322 
-0.436329961 2.7676084 -0.358083338 
-1.03428805 4.9341011 -0.95163691 
0.235050112 5.66391277 0.739848614 
0.612052441 5.46737051 -1.1089884 
-0.370921999 3.82220745 0.810047567 
-0.135268539 0.547749996 1.1737895 
-0.416205615 5.60944319 -1.00691044 
0.920109272 4.07701492 0.502466023 
0.339309782 5.6639185 0.220570013 
-0.733497739 2.05059338 -0.723900139 
0.37681669 3.32961988 -0.42150563 
-1.1885438 0.603735447 0.38754198 
-0.910308897 1.89592922 -0.640363812 
-0.606466472 3.49878478 -0.314965308 
-0.619228959 4.13320589 0.891756773 
-0.474428922 5.66390324 -0.654928207 
0.768811464 1.69624043 0.947478771 
-0.789232969 3.7703383 0.335099906 
-0.684328794 0.393686652 -0.56240803 
-1.30588996 5.38373375 0.167091474 
-0.455453902 1.8579489 -1.02500761 
-1.08582461 5.57474518 0.344575793 
-1.08388281 5.44393349 0.702819049 
0.921243668 0.40763557 0.0425135568 
-0.411316454 3.60858488 0.639318407 
0.194538936 2.93849969 -0.417200327 
0.815906048 3.74312377 0.169232816 
0.562967181 3.9153502 -0.775278389 
-0.261190563 2.92658138 0.389795631 
0.358481318 4.7427702 1.28372335 
0.62950027 5.27146673 -1.22529089 
-1.21284711 5.30054283 -0.632435977 
-0.816277623 4.28383636 -0.83763361 
0.268356681 0.384436786 0.314484268 
0.13550657 3.2126677 0.471295476 
-0.0351583064 1.66162181 -1.20201015 
-0.228534952 1.32340252 1.31024098 
-0.108159654 3.73315668 0.818051875 
0.845596969 3.9116931 0.428783506 
0.590500355 2.66485548 0.192227662 
-1.25399137 4.54556942 -0.079452239 
1.13012886 4.90790319 0.822882414 
-0.173946232 5.61239767 1.06580591 
0.643890202 5.66367531 -0.582665384 
0.859391749 5.57140017 0.779216945 
-0.163293451 2.25865531 0.865551591 
-1.03239608 4.24284935 0.481542289 
-0.27048111 5.3227253 1.31407535 
0.805832624 1.16106915 1.14163852 
0.531783044 2.33920717 0.658253849 
1.20969319 1.57236612 0.310179144 
-0.246853113 1.90658355 -1.0575906 
-0.499936342 1.97349405 -0.941119611 
-0.690368652 0.646228313 -1.10308647 
0.302219748 2.26229858 0.829613566 
0.00360342581 5.6638155 -0.83951354 
-1.14018846 4.80734634 -0.767668664 
0.670858085 2.42964721 0.408778012 
1.14133799 0.774246991 -0.766327381 
-0.736425579 3.98789406 0.683986068 
-0.547646344 0.611494184 -1.14112759 
0.411249518 5.66391754 0.49798739 
-0.495545089 3.28626466 0.200897247 
-1.23663032 1.37094021 -0.484014004 
1.14465511 4.89537334 -0.797272801 
-0.77605772 4.30542564 0.888389409 
-0.083115533 3.4587183 0.638357997 
-0.99250865 2.06334352 -0.086608693 
-0.756945014 0.596598983 1.00969982 
-1.12700546 0.684480786 -0.70366472 
0.241454467 5.66391945 0.517253757 
-0.781290829 4.94265461 1.16274714 
0.895962059 1.22032213 -1.06302476 
-0.555019796 3.81721306 0.708687186 
0.168275326 3.77640939 -0.837607563 
-1.16810954 1.40935051 0.622481585 
1.26047301 4.55587387 0.00411689933 
-0.229940906 2.15743518 0.91683954 
0.650861144 1.93673015 0.875430882 
0.572244465 0.513813198 1.01150525 
0.924245 5.65011787 0.379644394 
-0.878542542 5.05381155 -1.10941625 
-0.631370902 2.55977345 -0.293547601 
1.28285956 0.901155353 -0.544175386 
0.424353004 2.08103752 0.905871093 
0.35397774 4.60919285 1.23972726 
0.0511672124 4.77102327 1.33139443 
-1.3226223 1.0612514 -0.418928772 
-0.325747818 5.66391659 0.0846417844 
0.741137326 0.386431694 0.34174943 
0.590507925 2.21829867 -0.709329486 
1.35648322 0.800299644 0.0598619878 
-0.895808816 0.53240943 -0.784021139 
0.172501504 5.66391516 0.716502011 
-0.560248375 3.73475337 -0.636772394 
-0.561623335 0.441383004 0.861019731 
-0.831511259 5.66296577 0.326749682 
0.731543541 4.35753536 -0.955770373 
-0.0156219602 0.40710187 0.919953704 
-0.822312295 2.32271338 -0.175914958 
0.0189103596 0.943283796 -1.3646214 
-0.409827411 3.57103491 -0.610283852 
-0.392965108 2.08264613 0.916665256 
0.253071308 2.13271809 -0.927235723 
1.2152884 4.69958591 -0.547442675 
-1.19768035 1.66633272 0.110216372 
1.09340119 0.49440679 -0.19181256 
-0.998143971 0.582024515 -0.748815477 
0.0268215761 4.90016842 1.36064589 
-0.245191768 2.3742907 0.773036838 
-0.350438714 5.63799572 -0.974974632 
-0.225038618 0.465591282 -1.0399251 
0.464575142 2.17672443 -0.823944986 
-1.20076501 4.57462263 0.453626961 
-0.876306534 4.7534318 1.04247832 
1.22418082 5.48260784 -0.213466525 
-0.105614983 1.62254453 1.21731961 
-1.11664772 0.731433392 0.769509435 
-1.17723215 0.633883893 0.505995929 
-1.11481547 1.16231298 0.84334892 
-0.753431559 3.63061404 0.0622129366 
0.501394451 3.38406849 0.338068366 
-0.0308591649 4.72580099 1.3195678 
-0.319917738 0.871033132 1.34123373 
-0.635641336 4.43143606 -1.05770338 
1.16857612 0.534940839 0.0555321798 
0.42335403 4.61388779 1.22407866 
0.322610855 2.21640205 -0.85365963 
-1.25631452 5.4445219 0.211561397 
-1.18354571 1.69874597 -0.0533429533 
-0.243162364 4.54106712 1.23731005 
0.780147493 4.75641346 1.11522973 
-0.398497105 5.25043106 -1.31008494 
-0.501158953 5.64865637 -0.875927508 
0.691645384 5.66391897 -0.202100024 
-0.471793652 5.32049274 1.26770747 
-0.406572402 2.09309435 -0.905135214 
-0.680895448 0.384517461 0.268012077 
-0.416949034 4.27813625 -1.07427645 
0.819479764 0.872975469 -1.13659 
-0.291347176 4.65825272 1.27209651 
0.171293303 4.68305111 1.29719055 
1.14030302 5.38334846 0.688420296 
-0.85137254 0.423396051 0.485497594 
-0.0450985059 2.74580383 0.555897892 
-0.104274862 0.64189297 1.26991475 
0.857462943 4.98299551 1.11721373 
-0.044068519 5.66391706 -0.712825358 
-0.608402848 5.30119085 1.22384787 
1.31499445 5.23957825 -0.390497476 
-0.14419432 2.98712492 -0.418603063 
-1.31177855 1.37345302 -0.102841601 
0.779396832 0.783897996 -1.13724375 
0.145031959 5.56084585 1.1445328 
0.553467393 1.13250411 -1.27198732 
0.961561799 5.56831646 0.649164855 
-0.879919887 4.43235779 0.878035545 
-0.295384645 0.465047538 -1.02694607 
-1.06208599 4.29205704 0.474043816 
-0.255223066 4.75667048 -1.30858552 
1.09323192 1.85883427 -0.197225779 
0.730023623 4.86767483 -1.17749083 
1.3611474 0.887509227 -0.188886046 
-0.62321806 5.22008133 -1.24198043 
-0.725021362 5.34108162 1.14658165 
-1.04667008 4.2603898 0.471141905 
0.245486975 5.66391611 -0.445878088 
0.751421869 2.07220602 -0.687585652 
0.740339637 4.99738073 1.19414485 
1.28200054 0.690024793 0.27157104 
0.379241467 1.97490418 -0.985096157 
0.368386388 0.813136816 1.31464553 
-0.027705675 1.85962367 -1.10312653 
0.0321563445 5.66391468 -0.614007711 
-0.552903175 0.502995849 -1.00330329 
-1.07601988 5.60722113 0.166394651 
0.449458897 5.03762102 -1.31669092 
-0.886285543 1.53787076 0.941525877 
-0.585555077 4.27916193 1.00411797 
1.16951919 1.62838197 0.378576219 
0.14341417 3.51480293 0.668850064 
-1.25064898 4.75599575 0.498299003 
-0.946216822 4.60519361 -0.913602352 
-0.317555785 2.84544611 -0.402991712 
-1.18549895 1.6875006 0.142990381 
1.36476624 1.00769305 -0.105544299 
0.385870934 3.3776803 0.457741827 
0.750600934 4.56345272 -1.05688107 
-1.11563265 4.46811104 -0.555195332 
-0.669063032 3.57801867 -0.30310753 
-0.525797963 5.6635232 0.708507538 
0.914724588 2.10965204 -0.349140286 
1.24539733 4.7704916 0.526145279 
-1.18899882 5.52484465 0.114317 
-1.15911794 1.71030974 0.251910985 
-0.0232298225 3.49898314 0.667950809 
0.133747667 4.03512812 -0.997859955 
0.287703931 4.89290571 1.33642626 
1.27822959 0.803402662 0.486461401 
-0.587818503 5.66391373 -0.297921121 
0.42401129 3.87842345 -0.824804902 
1.01244175 5.54902506 0.61310792 
-0.00337085361 0.384437859 0.168502048 
-1.00291276 5.55523205 -0.61337173 
0.830379367 0.426299751 -0.538929105 
-0.807515681 2.35663652 -0.132330179 
-1.23836732 0.595225096 -0.054078687 
-0.971638322 2.02326751 0.328755617 
0.974389791 0.441675961 -0.30760783 
0.787593007 5.59518862 -0.804858446 
-0.558064878 1.04060686 -1.28313661 
0.699017406 3.74732971 -0.486816525 
-0.250017196 5.63914204 -1.00121319 
1.14472735 0.683377802 -0.66985321 
-1.12300181 1.00322413 0.856364012 
-0.998788357 5.22734213 -0.989174843 
0.548030138 2.75328398 0.0821714103 
-0.585850477 4.57267046 -1.15076232 
0.861442268 5.66284895 0.253926188 
0.303393722 5.38501072 -1.27729487 
-1.34196782 0.839407563 0.284115493 
-0.0969196185 1.39825392 -1.29972684 
0.751702726 0.473984241 -0.8049227 
1.2080127 4.53071785 0.362830281 
1.25419438 4.84429693 0.5553087 
-0.640681863 1.36349416 1.17664289 
-0.746645987 2.18997431 -0.576319456 
-0.0591512695 0.683081388 -1.29951477 
1.09031475 1.5636102 -0.658979237 
-0.194379598 1.73597741 1.15695298 
-1.0596149 0.569267988 -0.625810146 
-0.424670994 2.27673745 0.770999193 
-0.369334817 2.56991935 -0.588897943 
-0.730896652 5.00447893 1.20033014 
-0.594119787 5.46951103 -1.11569381 
1.17021823 5.27618217 0.736397386 
-1.36087608 5.03478003 -0.246659368 
-1.21465683 1.23248506 -0.641597688 
0.841184616 5.62566948 0.663628876 
-0.376716793 4.07460499 -0.969760776 
-0.52606529 2.18095303 0.788085461 
1.24562395 0.648290992 -0.307465672 
-0.413206488 5.5213418 1.13525832 
0.273596048 3.62071323 0.709391594 
1.28879881 4.99143362 -0.532659233 
0.19144097 1.9267261 -1.05639052 
-0.0473921485 3.00114202 0.433940411 
-0.0661892891 4.54343414 -1.2534796 
0.353098482 4.76969242 1.29284632 
-1.04934084 1.94043064 0.187620595 
-0.45941335 2.71460485 -0.388724446 
-0.949088991 0.522782087 -0.699157596 
-0.337674111 3.88407826 0.863978684 
-0.311000496 3.3080008 0.456526041 
-0.578793764 5.66382885 0.610636711 
0.658449948 2.19138098 0.670276165 
-1.06025195 1.08390081 -0.935451865 
-0.535258055 3.46638775 -0.39027077 
-0.247797981 0.391210109 -0.838028431 
-1.1964606 1.5786339 -0.360096246 
0.722522259 0.755783796 1.15860462 
1.29780614 5.0172081 -0.511388481 
1.0824306 5.42821121 0.73001349 
-1.36477911 0.995291948 -0.0876742452 
1.02785873 4.20918083 0.441869855 
-0.639622569 0.421263456 -0.745339394 
-1.36418545 1.07658732 0.133016422 
0.409932375 1.64032435 -1.15536165 
-0.456394881 0.384438276 0.437940896 
0.109752834 0.409440607 0.924791634 
-1.32074928 0.712689221 -0.0939707682 
-0.300212979 0.384438396 -0.570519805 
-0.612598777 3.66520476 0.515208364 
-0.478548139 5.09674168 1.30975723 
0.135595977 4.51044416 1.23634958 
-0.590646625 1.83999693 0.972227454 
1.03291512 4.79614449 -0.906915724 
-1.03833699 0.489928842 -0.412350923 
1.09340107 5.59569216 0.166528255 
-0.386598825 1.3204639 -1.28388834 
-1.14535999 0.518381417 0.0412881523 
0.0806750804 0.386353731 0.808657646 
-0.226730704 2.60891342 -0.621017933 
0.093155928 0.384433687 -0.0336102732 
1.07664895 5.50878334 0.587938607 
0.881979942 4.69591522 -1.01510131 
-1.25433314 4.63545656 -0.334498316 
0.295501351 2.32848072 -0.787540257 
0.632040799 4.4479208 -1.06792164 
-0.0666157156 5.6639185 -0.341920376 
-0.800426722 0.495787442 0.807422519 
0.6698035 4.74392557 -1.17302144 
0.342230529 1.3011018 -1.29961395 
1.28145337 0.753646493 0.410846531 
-0.112214729 4.21009731 1.09520006 
0.141345009 0.384436607 0.415884495 
0.749733329 5.09113121 -1.19644511 
0.350248516 2.98169565 0.286069065 
0.332463175 5.52253914 1.1580925 
0.605421782 2.4934895 0.438972473 
1.21947742 0.846357167 -0.662286162 
0.203908235 4.35062122 1.15637445 
1.03869784 1.54976213 0.752918303 
-0.351962566 5.41288519 -1.24967563 
1.12048447 4.53007889 0.608250976 
-0.0735338256 2.53497362 -0.696056783 
0.189110935 2.59631824 0.639838338 
-0.741637707 5.28813696 1.1622498 
-0.727895617 4.09514427 0.781325817 
1.0591296 5.6094141 0.239078432 
-1.21645486 5.50028133 -0.0265616216 
-0.815172076 5.60991812 0.741302967 
0.571243227 3.35245848 -0.0270351637 
-0.029151896 5.66350746 -0.872685134 
-0.2278689 0.385022461 -0.750828624 
-0.0205337815 2.07273459 0.991309106 
0.00525068818 4.37988281 1.18819499 
-0.454199553 4.16957474 0.998887479 
-0.813381553 4.75459814 -1.09135413 
1.12433362 5.56365633 -0.254899561 
-0.114687875 3.4967556 0.660447776 
0.807201624 2.30737853 -0.277991146 
1.0692116 1.48641157 0.751592934 
-0.667652011 0.607850194 1.07923996 
0.367879391 0.497078896 -1.06475115 
-1.03457332 0.849536777 0.949388444 
0.159522772 1.7771976 -1.14074075 
-0.764412045 1.18741596 1.16267788 
0.573467016 4.22004604 0.97556603 
-0.550886393 0.889290512 -1.2781657 
1.09201658 0.605898678 -0.639981568 
0.543825328 4.53108501 -1.15046084 
-0.222235084 3.17633748 -0.417579472 
-0.0560777113 3.39547896 0.598744631 
0.84693414 5.15299511 -1.12764001 
-1.08933139 5.3160696 0.833751619 
-1.33542299 1.24542522 -0.204161048 
