ply
format ascii 1.0
comment created by gply, a Houdini tool.
comment converted from .[b]geo
comment for more information about Houdini, try:
comment www.sidefx.com
element vertex 1307
property float x
property float y
property float z
element face 0
property list uchar int vertex_indices
end_header
-0.258253038 5.35856819 1.29968941 
-0.521108985 3.95788145 0.832306504 
-0.0146289337 1.81277776 -1.12696671 
1.10036075 1.34775269 -0.793164492 
-1.03399909 4.17156458 0.353912532 
-1.00420594 5.64866877 -0.0713022053 
0.786770463 3.94139647 0.575143218 
1.00949597 4.23287487 -0.521500051 
0.730718732 0.960792601 1.20551276 
0.0598393679 5.66391897 -0.0816466585 
0.89302814 0.669761658 -0.981116652 
-0.577804863 3.52174211 -0.397461474 
-0.398855746 5.66391706 -0.486911714 
-1.22623289 1.31046927 0.565013766 
0.918154955 1.44374406 -0.96241343 
0.923357427 4.47891092 0.863894522 
1.1662364 4.53775883 0.512130022 
-1.22007525 4.59430695 -0.410167903 
0.261358142 0.583086073 1.19682848 
-1.14597332 1.22038913 -0.779411018 
0.44735685 0.384442508 -0.526840687 
-0.381673098 1.36047339 -1.27236319 
-0.443518579 5.49169588 -1.15790617 
0.923535407 1.30827749 1.01588118 
7.85030425e-05 1.49434114 -1.27043617 
-1.07659209 1.59098911 -0.662914157 
-0.471468538 1.40836048 1.22853827 
-0.797624469 5.1904192 1.15643227 
1.17479539 5.53846169 0.0977432653 
-0.613914728 5.01410723 1.25850415 
-0.496336877 2.43635774 0.611971557 
-1.33227491 1.30509114 0.116783001 
-0.146761656 5.35023308 -1.32005143 
1.09424794 1.22564125 -0.852417111 
0.135602862 5.66391325 0.304049492 
0.889404058 1.18245399 1.07672203 
0.129652172 2.37191296 -0.798140347 
-0.238216817 0.384432852 0.4911623 
-0.495893508 1.51490498 1.18033051 
1.29999852 4.68187332 0.155447975 
1.30046225 4.80200958 -0.354520708 
-1.15190244 4.37049961 0.293206096 
-0.33155334 0.392507851 -0.808382154 
-0.518795729 2.42570996 -0.604089499 
0.177330464 4.12658739 -1.04426861 
0.960929513 4.08704424 0.422362179 
-0.665114999 0.461972743 -0.846051216 
-0.334686488 1.84648132 -1.07062364 
0.373852789 2.37466669 0.726919651 
-0.0178264417 4.57529449 1.26802707 
0.638003647 0.79217416 1.21421933 
1.34166932 0.76148355 -0.117735907 
0.223082706 1.88420618 1.07495594 
0.487785935 5.66361332 -0.721877873 
0.207992926 0.470419586 1.0504638 
-0.720272899 1.3864876 1.12932098 
-0.475464731 4.22683144 -1.02561355 
1.02492094 4.38760948 -0.652983904 
-0.621710062 5.66391706 -0.220761955 
-0.879746318 1.82526481 0.745823562 
-0.597720623 5.3436532 -1.20910215 
0.96475482 4.05242062 -0.351962298 
-0.480532557 5.31791639 1.26621842 
-1.35383582 4.82185936 -0.0543431565 
-0.264751941 5.66391468 -0.589260697 
-0.877122521 4.55377483 0.954163313 
0.787397921 2.36237669 -0.220845386 
-0.0728192404 4.9271245 -1.36219788 
-0.704786599 1.95820618 -0.816811323 
-1.10832 4.23074818 -0.0974246487 
-0.943288207 0.474332213 -0.562300444 
0.931277037 0.422991365 -0.302542448 
0.45726192 1.98552036 0.952234447 
-1.04269123 0.890168667 -0.952000439 
0.602738976 1.52360225 -1.13242733 
-0.400229514 2.83718395 -0.329471946 
-0.336883783 0.401463509 -0.845847666 
-1.20784974 1.0782938 -0.71647954 
-0.116840467 0.392630875 0.864448547 
-0.979742885 0.59189862 0.789716005 
0.895006895 1.71862245 0.815661311 
0.0971111059 5.33782578 1.33000803 
0.503657997 4.72577572 1.23978901 
-0.337853402 4.72678852 -1.28409588 
1.22606182 5.25272608 -0.639945507 
0.202325955 1.10941243 1.36026156 
-0.998122513 5.33089352 0.934213519 
0.610200763 0.384457767 -0.343990266 
-0.872975349 5.26355934 1.08306277 
0.535269678 0.384434521 0.323546648 
0.705000639 5.15843868 1.21494901 
0.651930809 5.16322517 1.23939478 
0.568694174 4.59381008 -1.16804183 
-0.397479713 2.0651269 0.926184833 
0.759212196 0.551038146 -0.947853744 
-0.594359934 0.400339186 -0.693401456 
-1.17879593 5.36466599 0.636447072 
0.686508238 0.42374754 0.712112546 
-1.33302617 1.20176148 0.288199186 
1.19246352 1.41669035 -0.558921695 
-1.16621017 0.538463295 -0.105957627 
-1.04057813 4.85127163 -0.918920457 
0.199718148 4.78279829 1.32294762 
-0.139862612 1.10274112 -1.36298764 
-1.06391478 5.09646034 -0.94159019 
-0.446823627 5.66391277 0.608918667 
-0.778945684 5.50802755 0.959979534 
-0.108165838 2.33103514 -0.8268556 
-1.31479371 4.73092604 -0.164733142 
-0.0444731675 0.384435028 -0.0246330015 
1.19452143 5.01355839 -0.743377447 
1.35757327 1.11427522 -0.233496547 
1.29663014 0.802344203 0.423697919 
-1.29232538 1.10874677 0.510130882 
-0.374842435 0.570519865 1.15984404 
1.36420822 1.00722587 -0.185640141 
1.09929669 4.89480877 -0.86077106 
-0.430189312 0.521659672 -1.08217573 
-0.165875018 2.17075276 -0.919171631 
-0.0255381651 5.61115837 1.08905113 
0.182134867 0.876882672 -1.35987008 
0.480783939 3.65657282 0.632477045 
-0.557240009 3.53940749 0.445034742 
0.221202463 4.0221324 -0.97945261 
0.637681365 5.66391087 -0.459059685 
0.710279942 5.56078625 -0.932502031 
1.13161421 1.80116284 -0.108997241 
-0.387650013 1.43818069 1.24368751 
0.577689528 3.7943809 -0.674315333 
0.225648046 1.50649214 1.24958777 
-0.844753921 1.62727535 0.92755425 
1.14381182 5.55954552 0.167651117 
-1.34423387 0.889229476 -0.321981013 
1.00527179 5.5839262 0.516273975 
-0.173561245 3.17532635 0.438541979 
0.587981701 3.53489876 -0.398451746 
1.2880311 1.13487422 0.511280835 
-0.0321409814 2.41360497 -0.777340353 
-0.627600312 2.52396607 0.359846056 
-0.839856625 2.13813472 0.487621397 
1.20707738 1.60770297 0.244632334 
0.288643956 0.484986722 -1.06617439 
-1.16776085 0.981782198 -0.793107986 
-1.22441912 4.67525053 -0.501029253 
0.577912569 0.4150832 0.768969774 
0.600111902 2.65269113 -0.188847095 
-0.832048059 5.66369438 -0.207675502 
1.25734687 1.36540234 -0.427921623 
1.00864005 1.02053499 1.00387573 
-0.509863794 0.433195502 0.866726518 
0.162144184 3.42706823 0.605628729 
1.08400798 4.17790127 -0.0137301702 
0.34625417 4.18968964 1.0467391 
-0.995384514 0.709808946 -0.914317191 
0.134108141 1.20466733 -1.3512857 
1.28623223 0.771876693 0.422497034 
0.226777449 5.66391754 -0.331991911 
1.29503822 4.70859432 0.259317964 
0.521016657 5.66391754 -0.11679513 
0.660539508 5.20662212 1.22809076 
-0.0444633365 3.02708411 0.431784332 
-1.32825458 1.2990706 0.157295033 
1.35802877 5.0284729 -0.273180306 
-0.811790466 2.29947615 0.279880643 
0.759828448 2.27491283 -0.449760079 
1.28979838 1.37913442 0.273489296 
1.1899184 0.957941532 -0.756967008 
1.0089041 1.33548641 -0.920144081 
0.426941007 5.65841198 -0.858280778 
0.362246811 4.23702478 -1.06788194 
0.571680784 4.10447216 0.90222019 
0.689948618 3.53153944 -0.0266113598 
0.0486067869 0.384435594 -0.609058738 
1.18795383 4.40036917 0.130882144 
-0.125796109 5.66391754 -0.224024758 
0.405637532 0.948127806 -1.32843101 
0.719319463 1.91088557 0.838777483 
-0.534165621 0.384537071 0.518198192 
-0.968169451 1.3075006 0.976082802 
-0.242904007 1.43490076 -1.27370262 
-0.378917754 5.66391754 -0.179180741 
1.1409601 4.35586596 0.311479717 
-0.519457281 2.63944316 0.396128744 
-0.958463669 0.694644749 0.942850769 
-0.169131398 2.01975417 -1.00696683 
0.837159038 0.388387084 -0.0211385787 
-1.06432962 1.83181417 0.384530365 
-0.970729709 0.56924367 -0.763976455 
0.00769884791 5.66391325 0.30285421 
1.04353023 1.96590924 -0.126842141 
0.664728343 0.38463971 -0.343678772 
0.333263099 5.66391754 -0.0664711595 
0.291423917 3.92105627 0.902552366 
-0.161001056 0.384435356 -0.0974715129 
-1.17385864 1.71409476 0.133715123 
-0.447865039 3.12390113 0.0423780605 
1.08660996 1.26838803 0.847256243 
-0.0860124305 0.975162864 -1.36474419 
0.0300918706 5.46493912 -1.24940658 
0.0685325414 0.611673295 1.25068307 
-1.04184818 4.11527252 0.123209946 
0.29021588 4.07021713 0.99281168 
-0.78296566 5.66391277 0.0768480971 
0.839762688 1.49381077 -1.00210679 
-0.0884769335 3.38163662 0.586428046 
-0.663207412 4.97470856 1.23101807 
0.693705678 3.54001713 -0.0723272488 
0.56288588 1.52370167 -1.14949846 
0.767337441 2.34266639 -0.325983822 
0.0908218026 5.66391659 -0.425896078 
-0.504024088 0.79971987 -1.27088499 
-1.21254897 4.58353758 -0.422971994 
0.899971008 5.56914282 0.733840227 
-1.11199617 4.43806839 -0.53071928 
1.0994246 1.15207922 -0.866920292 
0.569257736 5.18734074 -1.27172554 
0.329154134 0.882639647 -1.34125686 
0.170004189 0.544184208 1.16471422 
-0.00875314884 2.51782727 0.708726466 
0.33123374 0.384436727 0.466291368 
-0.977827787 5.13025379 1.03192234 
-0.278205663 3.26241875 0.442710459 
0.402187139 4.4814868 -1.17694938 
-0.295839101 5.592206 -1.07317114 
-1.36417186 4.99478149 -0.10907571 
1.0304656 4.18593693 -0.392491281 
-0.896802604 5.19078398 -1.085917 
-0.35335356 3.45825148 0.553820729 
0.313984334 1.19864333 1.32888305 
-1.2179879 0.655855477 0.433747917 
1.04554474 4.1756258 -0.321518987 
0.920815945 3.99149919 0.371549338 
0.92594105 1.04232264 1.07167101 
0.16260919 3.70883417 -0.794854283 
0.635928035 2.22068715 0.664605141 
0.721217632 4.99546146 1.20445251 
-0.677990258 1.62689197 1.0509553 
-0.207287773 2.01508927 -1.003124 
0.00470007304 1.19733059 1.35736406 
0.104957864 4.18201685 1.08049357 
0.885005355 2.2330606 -0.134048179 
-1.13916874 0.636017621 -0.602299094 
0.232813999 0.663459003 1.2701329 
0.00958803669 0.763131738 -1.34072661 
-0.359577239 0.455233216 0.987976551 
-0.305482507 5.66391325 -0.135064751 
-0.32947892 5.39740467 -1.26486874 
0.0990091413 3.03273368 0.424143136 
-0.315115511 5.66391325 -0.608509541 
-1.19401765 4.43835545 -0.240514919 
-0.936637878 0.436704278 0.377893776 
1.33272636 1.32939768 0.0443020724 
-0.854061246 2.2666626 0.198225141 
0.292268366 4.25340557 -1.09351718 
0.379380196 4.35358095 -1.12285507 
0.285443485 1.56446791 -1.21759009 
-1.30815625 5.25545502 -0.401159406 
-1.07281196 4.96513796 0.912859559 
0.216712326 1.12294054 -1.35818601 
-0.334888101 3.43536806 0.545924425 
-0.677751839 0.713015318 1.15993655 
-0.737616479 5.66390896 0.262977391 
-0.691501141 0.832404912 1.20213032 
0.233827785 5.61767387 -1.04618609 
-0.996341527 1.20362747 -0.98139441 
-0.419304967 3.06479454 -0.127470613 
-0.784137726 5.33368492 1.11495352 
0.976456523 0.431928545 0.173945606 
-0.889433146 5.5343771 0.816551745 
-0.938540459 1.03939426 -1.06270766 
0.756036162 4.70830345 1.1131562 
-0.876983583 3.83365321 -0.12912944 
-1.36398864 4.94739437 -0.0459198989 
-0.745326817 2.46400285 0.0218828619 
0.392165393 5.53502941 1.12483764 
0.305469871 5.30265617 1.3154186 
-1.05649471 1.86926889 -0.341243207 
0.716333151 5.52490568 -0.984993517 
-1.1895436 4.62035847 0.541217983 
-1.20830977 0.983887255 -0.727678776 
-1.16680241 0.558291674 0.290969342 
0.897170305 2.22217178 -0.0692159832 
-1.13270319 4.75991058 -0.754297495 
-1.01576924 4.90816593 -0.965218782 
-0.0976207256 0.384433091 0.194079369 
0.860424161 0.601026714 0.936078727 
-0.929557562 5.04132557 -1.07114506 
-0.0945430472 5.66391563 0.760865986 
0.263146281 3.4991827 -0.62825793 
1.23150945 4.48689985 0.00588684389 
0.898875296 0.689165115 -0.992803335 
-0.0697240755 0.384434491 0.0155332116 
0.670556128 1.33916795 -1.17154002 
0.575511992 1.98834312 -0.892251015 
0.844544291 2.21407604 -0.353835225 
1.35879838 5.06995964 -0.274723381 
0.945894361 2.12856722 0.15051192 
-0.553527415 0.384433031 -0.247948349 
-0.220107228 3.72671795 0.794797122 
-0.911726594 4.79875994 1.02980602 
0.57610178 2.64383268 0.283486515 
0.526318133 5.6639185 0.406474829 
0.0569661669 1.04710603 1.3646909 
-1.04976296 1.49411356 -0.775177836 
0.474224508 1.28613174 1.26691568 
1.07764578 5.58266258 0.334948719 
1.32737899 4.73158121 0.0727207512 
0.837973416 2.07490849 -0.57013011 
0.363022089 0.384432077 0.354353964 
-0.442177385 5.66391563 0.101827957 
-0.139455497 5.6639142 -0.327609956 
-0.184174031 0.384432971 -0.221240044 
0.0424456336 3.86316514 -0.901305914 
0.692086995 1.82585454 0.919955432 
0.13782461 4.61386061 -1.27642417 
0.445262909 5.66391611 0.387732387 
-0.723397434 0.421390444 -0.665424824 
-0.263425976 4.18395138 -1.06314445 
-1.01822603 0.516120553 -0.566261232 
-0.603925705 3.89452124 0.731940746 
-1.21144819 4.60928631 -0.463442981 
0.803719282 3.90655661 0.505159795 
0.961275458 1.99613345 0.414859772 
-1.35253584 5.00595665 0.300533295 
-0.865101814 3.8494823 0.260808587 
-0.786383152 3.70601392 -0.19682391 
0.697329521 5.66391611 0.167775065 
-0.581954181 3.36774302 -0.00711189071 
-0.606620491 5.196733 -1.25469565 
0.489817917 3.22295237 0.0670204684 
-0.746118605 4.48911095 -1.02271914 
1.25275517 4.56316996 0.192712337 
-0.120766684 5.66328526 0.874390423 
0.974672914 0.561303139 0.744249582 
0.682450473 1.30688095 -1.17623818 
0.753176093 3.63854456 0.127420038 
1.36293697 0.856335759 -0.0576921999 
-0.292184651 0.384437293 0.566903353 
0.83878088 2.25710917 0.284351498 
0.800107718 3.86210442 -0.451704681 
1.25875735 1.15164793 0.578786552 
-0.634010375 0.397398472 0.641995311 
-1.34913623 4.84596252 0.15335086 
-0.143343151 4.33647156 1.15596485 
0.598359227 5.66306877 -0.674587548 
0.100534201 4.7079525 -1.30944204 
-0.212276071 2.25163174 -0.860883534 
0.662605166 4.34966469 -0.997695863 
0.0411428362 3.28089762 0.524663568 
-0.309136122 0.384774297 -0.695156813 
0.131321073 4.12617159 -1.04749358 
-0.973792791 5.65354204 0.137341246 
1.19482327 4.98914433 0.737164676 
-0.330503047 5.66391754 -0.51714462 
1.01771069 4.83343744 0.938911915 
0.306101829 1.37354457 1.28563547 
0.526664674 2.07894993 0.859751284 
-0.470232725 1.34550011 -1.24977565 
-1.1791364 0.541542113 -0.0420507118 
-0.756244481 4.13621902 0.786639392 
0.926153779 3.90386796 -0.0546364635 
-0.694353461 5.02222443 1.22159612 
-0.765951157 0.575074077 0.976884544 
-1.21903288 0.762678504 0.600093484 
0.951318443 5.43565226 -0.886408389 
-0.252346605 2.22633171 -0.868313909 
-0.000944315922 0.384437382 0.625090957 
-0.379565239 0.38443327 0.269370496 
-1.26414061 1.25099182 0.509757161 
1.25758588 1.38187718 0.409521222 
0.930065632 5.17258072 -1.06445026 
0.682340205 5.66134453 -0.641379237 
-1.00788546 5.14586639 1.00193095 
0.949002862 5.65663099 0.18950668 
0.759714961 4.19112539 0.822952926 
-0.156908423 2.87897968 -0.457895994 
0.771573663 1.76558363 0.899678588 
-0.045115307 0.417673528 0.951066673 
-0.813010693 2.35128331 -0.113493197 
0.494215548 3.24335623 -0.111849353 
0.819001973 5.17230606 1.14481938 
-1.34139872 0.895083249 0.336260766 
-1.35611618 4.84559441 -0.0708633363 
0.460192502 1.47224998 -1.20933461 
0.450977147 5.66386604 -0.694188714 
-0.964189172 1.78335571 -0.667276144 
-0.595089376 2.65044785 -0.214869425 
-0.780396819 1.00684345 1.17675805 
-0.483608782 5.66391802 -0.074121885 
-0.19311209 5.66389513 -0.785153925 
0.32806024 1.06347752 -1.3466264 
-0.0930194557 5.47603083 1.23821211 
1.01507652 4.27085781 -0.556016445 
0.32950449 3.78374529 0.800235868 
-1.27697301 1.42200565 0.253358215 
-0.692048252 3.77531195 -0.532061815 
-1.34010029 1.08969831 -0.341092587 
-0.832799792 2.28144026 0.24832499 
0.186778352 0.384436339 0.465983033 
0.56284225 3.94931531 -0.800945938 
0.972588181 5.59943485 -0.53028363 
-0.453241408 2.93775868 -0.0192847103 
-0.379773319 0.915032446 1.33266509 
-0.2153427 4.00384951 0.969723701 
-0.908649504 0.499571085 0.695025921 
-0.748338461 4.57289648 -1.06257558 
-1.14922619 0.671691656 -0.642234504 
0.662956119 3.49211454 -0.0389508381 
1.14679396 0.567524791 -0.40678674 
1.36449087 5.08982849 -0.163627908 
0.678793013 4.44583559 1.04157102 
-0.897386551 3.93087482 0.329552919 
0.809574485 4.16780615 -0.756446481 
-0.133169532 1.42326188 1.28998935 
-0.532015622 3.87251472 -0.763368309 
-0.671974242 3.69289684 -0.464368403 
-0.613469362 1.0193032 -1.26188731 
-0.00743940007 5.66391659 -0.226506755 
0.0377369747 4.07065153 -1.0199703 
0.519793868 2.04919004 0.883038998 
0.470609486 2.82000661 -0.221914679 
0.94588697 0.432296574 0.324823737 
-0.316273659 5.63762474 0.987550437 
-0.415222824 4.02277088 0.923776925 
0.112837166 3.60667276 -0.733423591 
-0.744199276 4.83631516 -1.16202295 
0.879440367 3.91420126 0.349691927 
-0.265758306 1.33905983 1.30169201 
-0.471272826 2.18826294 -0.812507927 
1.19174445 4.93578005 0.727920413 
1.29570627 5.14704418 -0.519677937 
0.315819353 3.44275737 -0.562692821 
0.917550862 4.79006386 -1.02175474 
1.01400256 1.04258597 0.997450054 
-1.20503795 4.62582016 0.505253851 
-1.30448341 5.0105381 -0.486203313 
1.02160525 5.09379721 -0.991852283 
0.885427237 5.66316032 -0.0975360572 
-1.33198225 1.21512914 0.275994778 
-0.743111432 4.20569372 -0.84705925 
-0.254016757 1.98295474 -1.01220155 
0.113759622 2.78295183 0.524353087 
0.200034916 5.66385555 0.80406332 
0.0603651255 3.03063297 -0.42991817 
1.14786577 1.68573868 -0.353117526 
-1.36469054 5.02397633 -0.0679403245 
-0.824739933 2.1653266 -0.479277909 
-1.31940901 5.06202412 -0.443688035 
0.255084276 5.59666538 1.0756613 
0.896524608 1.69084752 -0.835567713 
0.465677977 0.384435177 0.055888664 
-0.500940859 3.75247622 -0.694336236 
0.515209794 1.67036986 1.10626888 
-0.288606852 3.85002398 0.857818663 
-0.905660212 1.02733827 1.0870961 
-0.414982378 0.568934441 1.14586806 
-0.297980577 0.417675316 -0.918367445 
-0.192412794 0.828817904 -1.35221016 
1.36473167 1.07478654 0.0224039629 
0.115825802 4.16962576 -1.07270825 
-0.83309269 2.31513238 -0.140511751 
-0.8861655 0.442731023 0.525816321 
-1.36194646 1.1951077 -0.00807227567 
1.06988668 0.474141657 -0.059935376 
0.034748368 0.384433091 -0.0678468794 
0.786626101 5.6372366 0.694298267 
-0.953328073 5.32952881 -0.981098413 
0.603129268 0.404548526 -0.706496894 
0.836009681 4.20252037 0.753916502 
-1.06451011 1.90105283 0.227474183 
-1.20936954 0.801849306 -0.65640831 
-1.25237334 4.66181564 -0.379958361 
0.428596735 5.55926037 -1.07934153 
-0.950203896 5.3910799 0.935061455 
0.494366914 1.77763498 -1.05346239 
-0.475763023 0.384435654 0.0353507772 
1.35169518 1.19136572 0.186541364 
-0.525723934 4.83612061 -1.26309276 
1.22312856 5.44285679 0.372968107 
0.930255413 3.93135929 -0.194734797 
-0.757743955 0.42026642 -0.618333399 
1.17856932 4.62975502 0.576195836 
0.169419184 4.76130152 -1.31818998 
0.825196981 2.31777048 -0.177424207 
-1.084728 5.18701458 0.899506032 
-0.448323548 3.61941767 -0.624640942 
-0.788806915 4.27094603 0.853479087 
0.144429415 5.66391611 0.23835139 
-0.421313584 0.406895071 -0.827048719 
-1.20834613 5.29858017 0.643945634 
0.570658743 5.65680122 -0.794522583 
0.604911387 2.37809467 0.562764645 
-0.308573186 2.72618032 0.501567006 
-0.979084849 1.72206986 0.705028892 
1.36448991 1.1096971 -0.0288103316 
-0.221083373 1.03691971 1.36280739 
0.485090554 4.42899942 1.1259768 
-1.1941216 5.42881918 0.501886725 
0.547262788 5.6639185 -0.513731003 
-0.0819727257 4.9467473 -1.36316824 
0.636678874 5.66125154 0.689722657 
0.73007226 1.43636847 1.10426259 
0.63194859 2.44668531 -0.453689545 
0.829640388 1.59635019 -0.957206964 
-1.33937955 1.30577135 0.0583957881 
0.360992253 3.6557138 0.70007658 
-0.192361295 4.37911654 -1.17206275 
0.0503720641 0.655808151 -1.28369951 
-0.336850137 5.19699383 -1.33628809 
1.28401065 1.2954998 -0.411968708 
0.343322337 3.50890517 0.599918783 
-1.23207128 1.22720921 0.605024278 
-0.444808543 2.9021349 0.16177474 
-0.375354409 1.18425512 1.31865883 
0.666829109 4.21406412 0.912017286 
-1.01119328 1.48134136 0.836046219 
-0.944421172 5.64895868 -0.340113044 
0.47298637 3.77980161 0.731020749 
-1.26442993 5.30215168 0.506855726 
-0.967537045 2.10700345 0.0635216832 
0.775434375 5.663908 0.145751506 
-0.775063157 1.7191751 -0.927961469 
0.356415093 2.21421218 0.843474746 
-0.661725998 4.08778572 0.831876278 
-0.504473329 2.61665869 0.442215323 
1.12422991 1.32196534 0.769821644 
0.843096972 0.522123992 0.819572687 
-0.534893572 2.67932391 0.315452129 
1.13934159 0.521280944 0.126216561 
-0.681556702 1.85064793 -0.911424875 
-1.22224414 1.61430454 -0.0817153901 
1.18020368 4.39321661 0.175450563 
-0.913600326 1.28141046 -1.03259337 
-0.971483707 5.55784941 0.660677671 
1.23353219 4.52283192 0.220503569 
0.811919868 1.65418231 0.938737035 
0.935362995 0.652309 -0.925948441 
0.583057523 4.910532 1.25682998 
-1.2420361 0.620074034 0.186416596 
0.567109168 2.04607701 0.858629227 
1.12389541 0.659701705 -0.673783243 
0.274240971 5.6639142 -0.43770349 
-0.757918715 5.66154146 0.545509934 
0.340500385 2.26834202 0.812108636 
-0.0294144824 3.84769726 -0.892061532 
-0.0335348099 3.41665673 -0.613518476 
0.221315503 2.71231699 0.547426462 
0.685773253 3.55186534 -0.185616627 
-0.593801856 5.19540501 1.26074147 
0.253472656 0.447652042 1.00112677 
-0.100930385 0.396229893 -0.880607665 
1.35297775 4.8499651 -0.129264995 
-0.368365258 4.77419186 -1.29063129 
-1.08169246 5.53633356 0.501414537 
-1.3543632 0.862616062 0.238880232 
-1.21726346 0.734831691 -0.5726493 
-0.0764125586 5.35641479 1.32350457 
1.21268117 5.46529484 0.341834009 
0.0889299959 0.824154317 -1.3559761 
-1.31458426 0.962381363 -0.460359812 
0.840204477 2.17805505 -0.426879853 
-0.707867205 0.967899442 1.21811557 
-0.351633251 5.66391802 -0.399369508 
0.297270149 0.606696963 1.21338487 
1.36466837 5.12311792 -0.105964303 
-0.16474247 5.66391325 -0.616168082 
1.18509448 4.39926147 0.154649615 
-0.970978081 4.56641674 0.865082145 
0.923108816 4.83706713 -1.03285062 
-0.620090008 5.65450144 0.771362066 
-0.537230432 5.65577888 -0.822202921 
-0.146344781 5.45320797 -1.25571823 
-0.360798657 2.74160242 -0.456814826 
-0.438610494 5.6637764 0.730576575 
-1.32815647 1.24233353 -0.259060353 
-0.451280802 0.385494083 0.661587954 
0.213673115 3.65910387 0.751944542 
1.08114779 5.40413857 0.763945103 
0.123659104 0.76278007 1.33524466 
-0.29490909 2.9608252 0.35123989 
-0.483478695 1.52945387 1.17935586 
-1.29272306 4.72884178 0.303873956 
0.918760896 0.634993792 0.923839569 
-0.710238934 1.2264564 1.18408787 
-0.978430808 4.04989815 -0.299395233 
0.0244981758 0.845371366 -1.36001921 
0.20870617 2.65118837 0.596192002 
-0.0497014262 0.38443312 0.554345667 
-0.106710516 0.384556681 0.73628217 
-0.58260107 5.27058172 1.24607289 
0.0818778351 0.692490578 -1.30354631 
-0.863167405 4.1316824 -0.659531534 
-0.777241707 5.53287268 0.925091028 
0.472757757 2.41193557 -0.645775437 
0.0794169158 5.66391802 -0.186140433 
-1.01619387 1.50271118 0.815725207 
1.36250007 4.89684629 0.0325370058 
0.371938944 4.85059929 -1.30794632 
1.35347033 1.24451554 -0.0756196305 
1.26655126 1.38962817 0.367358923 
-0.975233793 2.09486842 -0.0617304668 
-1.3614918 1.16298199 0.0986248851 
-0.606410086 5.66338634 0.647596002 
-1.26610637 0.631859541 0.0865594596 
0.847179413 4.24619055 0.775980413 
-0.546822309 3.42659187 -0.321491659 
-0.776189387 0.38510251 0.0667936429 
-0.822404325 3.82263851 0.339996934 
-0.20058994 4.39436913 -1.17816508 
-0.656741023 1.23830974 -1.20684135 
-0.416655421 0.516088605 1.07900405 
-0.618678927 5.36968708 -1.18416882 
0.0570108108 4.9090519 1.36111498 
-0.603049815 5.66391468 0.4211573 
-1.10462141 4.3566227 0.44643265 
0.210090265 0.782426298 1.33547282 
-0.0126639688 5.25434542 -1.35773671 
-0.262433708 4.0166378 0.967864633 
0.645240486 5.6639142 0.432372987 
-0.20992294 1.31106412 1.31562364 
-1.11729312 5.09342957 -0.867993951 
0.089092806 1.52208138 1.25847149 
1.05465376 1.16120219 0.925100088 
-0.88870728 0.914253712 1.09393883 
-0.407515824 5.35850048 -1.26803207 
0.608516514 0.470361561 -0.906001508 
-0.215552777 1.37687933 -1.29655945 
0.194685638 2.49283934 -0.708518565 
-0.737895727 0.385974526 0.330435008 
-0.508923292 2.04497623 0.891254365 
1.28625393 1.1798768 0.492705464 
-0.345568955 5.38962173 1.26577771 
0.908153057 5.37026215 -0.993005037 
-0.917946935 3.98178339 -0.3625682 
-1.3630271 5.2361784 -0.056552697 
-0.843413711 5.6586194 -0.455178201 
1.11318636 4.82783699 -0.818630934 
-0.907426476 4.10856438 0.566439927 
0.531564653 2.72037554 -0.250078142 
-1.18502045 4.52041721 0.430740446 
0.0364281535 1.75545347 1.15574646 
0.186213806 5.66327286 0.865209818 
-1.32228458 1.06783652 0.418333948 
1.12183833 1.82290006 -0.0129601778 
-0.300177038 2.84960175 -0.411737919 
0.0690905154 3.93111801 -0.942213356 
0.0422125347 4.74720097 1.32528436 
-0.418608874 5.66391563 -0.485831589 
0.279661059 0.515701771 1.11694431 
-1.21305752 0.620442867 -0.351691365 
-0.355153531 5.66018009 -0.871949792 
1.04390192 1.6788677 -0.641996086 
0.932003379 5.49476147 0.83249408 
1.27540851 4.80293274 0.456056684 
0.251355767 3.29643703 -0.482041836 
0.497244 1.61682034 1.13879335 
0.0709294155 1.52987814 1.25673306 
-0.238920659 2.36932373 -0.778450668 
1.0948621 5.31941032 0.823866069 
1.06681347 5.5595994 0.459581465 
-1.00914359 5.63687706 0.236768946 
0.824302435 5.66356754 -0.273224235 
1.13397658 5.12707901 0.84169066 
-1.16065407 1.63139164 -0.406339496 
-0.538030565 5.66391754 -0.0343045369 
1.28255463 1.36793089 0.330374718 
1.0381186 1.7294364 -0.593892813 
-1.36372447 5.14195251 -0.174390629 
-0.611725152 3.5693078 -0.405345082 
-0.394276083 0.634871125 -1.21306002 
0.668504357 5.66290665 0.612959743 
-0.179854587 3.8465023 -0.879086733 
-1.33368063 4.81962109 -0.189921975 
-0.932268262 1.57059312 -0.87650311 
0.945413828 5.6596036 0.074044399 
-0.133754492 5.04572487 1.36456537 
0.874538302 2.25080419 -0.131837532 
-0.349243581 1.86908817 1.05448329 
0.00117269997 3.07268476 0.435948044 
1.31785488 1.26093721 0.299138963 
0.541315734 0.718295634 -1.22095513 
0.852434993 2.26937938 0.197547615 
-0.434682667 0.384435654 -0.346256316 
-0.0243513528 1.3918848 1.30394685 
1.24788725 0.685709357 -0.399603605 
-0.382549286 1.68980658 1.1385802 
0.427170873 3.70895743 -0.70555687 
-0.267481238 0.384433806 -0.393638611 
-1.29810178 1.37189817 0.222032189 
0.764346719 0.632348895 1.04121947 
1.27450287 4.71079016 -0.355377644 
1.33885157 1.25601625 0.163052917 
0.422127098 5.41038513 -1.23350239 
0.371587455 5.66391754 0.420903951 
0.320750087 0.384437025 -0.426906794 
0.415931702 2.03048897 -0.940438151 
-0.938562512 1.91537607 -0.573006332 
-0.829070449 3.75919318 0.150735185 
0.344203651 1.26338899 -1.3085146 
0.557297051 5.66391611 0.419958323 
0.793454528 2.28854704 0.353407621 
0.371847689 3.95247936 -0.896044135 
0.416984141 3.00936651 -0.137095749 
0.481917679 5.66391659 -0.489286631 
-0.809517682 4.33516312 -0.880117595 
1.36346138 5.20820856 -0.0909784362 
-0.0527701937 4.36838007 1.18096113 
-1.01911771 1.73612523 -0.624779642 
0.418321252 5.03559399 -1.32459354 
-0.693788588 0.404373378 0.616762161 
0.221988693 4.11204767 1.03088975 
-0.00969899539 5.66391277 0.762814105 
1.11290801 4.77372789 -0.792849422 
0.259043366 2.77043247 0.490397334 
1.24327207 1.5452981 -0.156614706 
0.0452283435 1.0697248 -1.36458731 
-0.583007395 5.66388464 -0.577468038 
0.134084523 3.48803663 0.65216279 
-0.197010815 5.07376432 -1.36394596 
-1.36444831 5.17588854 -0.0750448108 
0.113659658 2.24936938 0.87723124 
1.16143799 1.74056447 -0.12050689 
-0.745000362 5.66372871 0.41435039 
0.617174923 0.904012382 -1.25340283 
-0.717782319 4.66316748 1.11928236 
0.655703545 0.385938674 -0.484172016 
-0.848825693 3.82392836 0.260017723 
-0.304537058 2.13328147 -0.913303435 
-0.557015538 2.17211723 -0.775291443 
-0.539818645 4.34293604 -1.06049132 
1.04822826 5.38667774 -0.827312589 
0.495147854 2.45618582 0.597339213 
-0.144252136 1.68276572 1.18758142 
0.642175078 5.5041666 1.05450654 
-0.160816893 4.61833239 -1.27613378 
-0.863811612 1.06940722 -1.11401725 
0.4041875 5.27209902 -1.30279517 
0.473247945 2.55248332 -0.53491807 
0.991429985 1.59815037 0.784300089 
-0.51734221 4.1206274 0.940125048 
-0.689800441 2.04313755 -0.770687938 
1.27068043 1.34765339 0.402145416 
-0.51832521 0.384433031 0.115037113 
1.11064792 5.58593798 -0.149303034 
0.365441203 5.57476139 1.07942224 
0.683582842 0.601285934 -1.06332803 
-1.36037993 0.927393556 -0.241434216 
-1.11261141 1.31308091 0.792121172 
-0.00697617233 3.92891312 -0.942527056 
0.202284276 5.66292334 0.87422514 
0.0448232964 5.66391563 0.291041076 
-1.12605262 0.845312953 0.825373948 
0.00484532909 4.63259077 1.29108071 
1.35991716 4.85116482 -0.00481375726 
-0.292624563 0.762079477 -1.31450081 
-0.910449982 1.17686927 -1.06212568 
-0.192084193 0.479592025 1.06861758 
-0.423029721 5.6639142 0.0073314053 
-0.982814789 0.997656703 -1.02878392 
-1.24745727 1.28186357 -0.530842841 
-0.4128775 0.384436399 0.145700693 
0.104311779 5.66391563 0.612477124 
0.421564817 5.41595745 1.2296536 
-0.431413382 5.21993017 1.30861902 
-0.291034698 4.80387211 -1.31468582 
0.699531019 2.09919834 0.716797769 
-0.625589907 4.98989773 1.25022423 
0.11055436 4.13874578 -1.05574489 
0.792815089 5.6622324 -0.466868341 
0.761443555 5.64301157 -0.700336456 
0.222299233 0.618293822 -1.23520792 
-0.840985179 5.24645329 1.11266708 
0.812855422 0.60297209 -0.975476623 
0.805443347 5.6557951 -0.561405897 
0.00921807997 5.24575281 1.35893703 
0.82204926 4.05461597 0.643792093 
-0.668926716 1.18160403 -1.21373594 
-0.38609314 1.88306546 1.03562856 
0.544519722 0.384462297 0.454841018 
-0.152630121 4.90738392 1.35535693 
0.13218838 2.65649986 0.607799232 
-0.854248881 5.66351748 0.186943278 
1.17930126 4.83541012 -0.711464405 
1.32584715 0.798429608 -0.303930402 
-1.22118497 4.93748856 -0.670677662 
-0.779286802 5.63538218 -0.708581805 
0.0463356934 0.384435326 0.430493712 
0.554177046 5.13907242 1.28461576 
0.633826494 1.73110187 1.01732087 
0.403259814 5.61542654 1.00128567 
1.17516589 5.12289906 0.782044291 
-0.886452794 5.09957075 -1.1040045 
0.715025604 4.4882741 1.04219675 
-1.05987883 1.76663661 -0.494197309 
0.0692603588 5.6639185 0.107478075 
-0.672490001 5.6639185 0.044620961 
-0.591526628 4.44904137 1.08901906 
0.285479009 0.384652138 -0.696592033 
-0.377020687 0.384433091 0.541674435 
0.808477461 1.1438688 1.14317024 
0.750182271 5.65911341 -0.597619772 
-0.129140809 0.475544393 -1.06554604 
0.330116808 5.65770817 -0.900139153 
0.889617085 5.28135395 1.06275332 
0.452015579 2.41490364 -0.656663179 
-0.463894695 4.8623333 -1.28807461 
-1.16199458 1.50538921 -0.550144076 
0.23088257 1.95419359 1.03333187 
-0.995858312 0.438836843 0.102928467 
1.33184266 0.739442945 -0.119592831 
0.584499061 5.18471479 1.2661649 
1.33377182 5.36344576 -0.0183398966 
0.226127222 0.588344157 1.20644879 
0.729761004 3.93788409 0.648213446 
0.443836331 5.54097652 -1.09868121 
0.555308282 1.9425267 0.932246685 
-0.659956038 5.539814 0.999331594 
-0.24245134 3.8618207 0.877361298 
0.926196575 0.89877528 -1.06387997 
0.788950503 2.3951304 0.0466788374 
0.101503678 0.710291028 -1.31235254 
0.295749515 2.61005139 0.595461309 
1.25445819 5.45197392 0.182460189 
-0.756571531 5.66242027 0.520460188 
1.2000916 4.51480436 -0.369299948 
0.70814395 0.384471953 -0.137574613 
-1.12710357 1.81151545 0.0780545175 
0.180295542 5.66391659 -0.550911427 
-0.901973486 5.62068987 -0.589346051 
0.87782234 4.39872837 -0.8574633 
-1.01211929 2.0287931 0.0895627886 
0.907477677 3.88266039 -0.128990397 
-0.877683043 2.23185825 0.191271588 
0.307868361 5.65600872 -0.920686066 
-1.35711384 4.83133936 -0.0193721391 
0.90389657 2.05750966 -0.465019107 
-0.403831393 0.502387464 1.06203568 
-0.900810957 5.65584803 0.363283098 
-1.15956354 1.69084954 0.293109089 
-0.252313375 5.62294292 -1.03292227 
1.13515103 0.580710411 -0.484166741 
-0.795085847 3.71391201 0.179213345 
-1.34918022 0.99162209 0.33437404 
1.03536558 5.62919521 -0.176936999 
0.0311872791 1.98517895 1.03922486 
-1.10946786 4.28885078 0.303760707 
-0.230288029 0.397525012 -0.871298492 
0.829841614 4.89090443 1.12156022 
-0.0113468515 5.66391659 -0.0747654811 
0.384276986 5.1767416 1.32756853 
0.666498959 5.60253048 -0.889062166 
0.480019569 4.6873579 -1.23509717 
0.86830014 4.28783846 -0.785775065 
1.3092525 4.93251848 -0.432654291 
-0.723178864 5.40278625 -1.10783565 
-0.666976869 3.49828768 0.0421996042 
0.546782732 0.384432077 0.0645317137 
-0.915959001 0.452134371 0.517587185 
0.430783391 0.568619132 -1.14030254 
-0.470537663 5.66391611 0.254636496 
-0.219216302 1.71509349 -1.163234 
-0.44072783 1.47269237 -1.21567798 
-0.837795258 5.66221857 0.358380198 
0.23466076 3.89089823 -0.897461772 
1.26675653 1.21552825 0.525253654 
-1.06620562 4.50339651 -0.687372029 
-0.946579516 2.13995004 -0.0719271898 
-1.31986034 5.10296631 0.441088855 
1.05359662 4.71653032 0.84421885 
-1.14207113 1.71586072 -0.316458821 
0.509662747 4.21095562 -1.00155914 
1.30294025 4.90515423 -0.438701808 
0.0540783703 5.34327364 -1.33014011 
0.580345035 2.65522146 -0.250726938 
-0.551631093 3.43388724 0.322814673 
0.997748733 4.22353125 -0.534327447 
0.483687341 0.384436667 -0.164516732 
0.341207057 3.33113432 -0.453418761 
-0.918983281 5.66132736 -0.124466538 
0.64126116 3.45850325 -0.00242759241 
0.959768414 3.9931109 0.236745447 
-0.892246008 1.59531999 0.903891444 
-1.25755501 4.93455696 0.591062307 
-1.28337228 4.78059387 -0.403146535 
-0.965349555 0.460778624 0.453092992 
-0.303522706 0.3844347 -0.366519332 
0.568962216 3.3979187 0.219243079 
-0.2462852 2.41072226 -0.748932958 
-1.15012848 1.342664 -0.711565495 
-1.18093383 0.976265907 0.773324966 
0.283300698 4.97122526 -1.35205448 
-1.08227324 0.495823741 0.296392381 
-0.0899998546 4.58003283 -1.26724839 
0.908524573 4.86729097 -1.05381405 
0.982255876 0.572161078 -0.753703773 
-0.800772429 1.21639252 -1.13274658 
-0.0383405909 2.68666625 -0.593327463 
-0.107876994 5.22496176 1.35950983 
0.0695911497 1.65167654 1.20602274 
-0.0426585339 0.384457707 -0.705988407 
0.977596939 4.08419847 0.37021023 
-0.714372396 4.14987326 -0.832620859 
-0.149842411 0.384435594 0.0483531803 
1.01051843 0.453846872 0.269800425 
-1.29672003 0.870647371 0.486251533 
0.817978561 5.6611166 -0.449776322 
-0.995123863 4.93250227 0.993666649 
-0.674046218 0.434628695 0.760319352 
0.300851434 4.01213741 0.956009507 
0.179922044 3.86972427 -0.893503189 
-0.398815751 5.33900213 1.27933848 
-0.032734111 0.384436727 -0.605236232 
-0.807018518 5.5420084 0.885704398 
-1.18616366 1.693681 -0.0370605066 
0.725357652 5.21891117 1.19353032 
1.3025713 4.70220852 0.190319434 
-1.13319373 1.75320053 0.274313927 
0.732350469 1.92611694 -0.816013515 
0.502697706 5.6639185 0.245381281 
-0.204880983 0.384435236 0.000654527452 
-0.255067617 1.72776031 -1.14992881 
0.603532612 0.422053635 0.775586426 
-0.614500046 0.557478905 -1.05090952 
-0.776317835 5.61414719 -0.772639275 
1.19246292 4.41819382 -0.17238757 
-0.661419094 5.66391802 -0.378003716 
1.0012989 2.04346943 -0.111057445 
-0.464310944 1.54971313 1.17849576 
-0.27787292 2.3240819 -0.796064913 
0.507653117 0.564521849 -1.10882044 
-0.0479968935 1.20377946 -1.35563302 
-1.28734136 4.64139986 0.142697662 
1.33431649 4.93813515 0.335695744 
-0.581177831 0.847215533 -1.25678635 
-1.2626822 1.43930459 -0.30574131 
0.0881284401 4.82950449 1.34599805 
0.167254597 4.27359629 1.12196171 
-0.481851637 5.58773232 -1.01445973 
-0.111144781 4.73289442 1.31575394 
-0.865855575 1.73070705 -0.839138508 
-0.785112143 4.36937571 0.922458768 
0.0522089638 1.18410587 1.35853493 
-0.262186617 3.24465823 0.439143538 
-0.428142965 5.55698347 1.08276641 
-0.608489752 2.28111291 0.637839615 
-0.333539873 2.51441574 -0.646422803 
0.63808316 3.54422712 0.319302082 
0.300522178 4.94757843 1.34477198 
1.35559177 4.82889748 0.0443940684 
1.33539557 4.83619261 -0.220803499 
-0.442403585 2.91821051 -0.143373698 
-0.122674242 5.51744747 1.19668686 
-0.412372023 3.3737309 0.429075152 
-0.586144209 3.38794374 -0.119333684 
1.20247483 0.748133779 0.625537276 
-0.474947155 0.865447402 1.2988975 
-0.375210583 5.66391659 -0.302158117 
-1.27613497 5.10450077 0.580381274 
0.23595506 0.384434819 -0.160856783 
-0.510155082 4.4061923 -1.10509086 
1.02195597 1.32057798 -0.91067934 
-0.970287204 0.84142977 -1.01449823 
-0.117153294 3.55443144 0.698738635 
1.24270153 0.89143008 0.635428905 
0.464403868 1.21241379 -1.28923869 
1.08731389 1.89005494 0.0631206855 
-0.984808683 0.895373404 -1.01618385 
0.388234347 2.77102113 -0.407804966 
1.35488915 1.18810856 -0.158456311 
1.34780407 4.90005589 -0.240658566 
0.485049754 4.78639936 1.26345706 
0.154300913 1.82016206 1.11890697 
1.10129189 1.58358908 -0.619639575 
1.34277475 1.15645564 0.288764 
-0.0130371153 0.390382111 0.853333473 
0.404032588 5.6639185 0.214080065 
1.03221369 4.59180069 0.803841233 
1.28591394 4.64134693 -0.156866759 
-0.309211195 3.10257554 0.328633785 
0.202273607 4.07064772 -1.0104506 
1.25239587 0.612635076 -0.0667647496 
0.236324757 5.66391468 0.732496798 
0.384643555 0.446804702 -0.960196376 
-0.210117072 3.10897589 -0.395218492 
1.18759751 0.912353396 0.751414716 
1.15693033 4.623312 0.616923749 
-0.418581188 0.399719566 0.799928665 
0.0154661117 5.66330814 0.886293828 
0.941083193 5.65734482 0.207056254 
0.792953193 5.30503654 -1.12355399 
0.992640615 1.5269556 0.830589056 
-0.814328074 1.90747702 -0.749534607 
1.08011699 1.75243497 0.464022398 
-0.769209683 3.93610239 -0.594460785 
1.12372458 1.2769202 -0.791558504 
0.102031171 4.08256435 1.02509153 
0.491828799 0.450072527 0.924317896 
0.864724874 0.401855946 -0.299854726 
-0.722519875 5.663867 0.399094701 
0.0876321271 5.49212265 -1.22324204 
1.17755854 4.77896929 0.683308959 
-1.19550109 1.65734017 -0.183007061 
1.03588974 1.63031876 -0.698885322 
0.024646204 5.66292429 -0.896926105 
-0.924250245 0.408857197 0.0734089464 
0.884678423 5.45044184 0.936689377 
-0.603350878 3.97478819 -0.792185068 
-0.049661275 1.66447675 1.20045102 
1.00343299 0.440352261 0.0465090126 
0.192544639 2.82383943 0.478652 
-1.34070981 0.960597992 -0.36275807 
1.18079114 0.563352406 0.223910719 
-1.29152799 4.95492887 -0.510802031 
-0.330990493 5.28914404 -1.31495357 
0.33133015 4.02705765 -0.956027985 
1.0743891 4.73366642 0.82565546 
-0.419802785 3.04327869 -0.120205358 
-0.300925881 1.26332128 1.31660998 
0.0218557194 4.47220135 1.22553289 
0.910067677 0.465542048 0.583911479 
-0.434788555 5.3427825 -1.26841176 
0.826336086 1.15116227 1.12905979 
-0.125689268 4.22054005 -1.09926379 
1.30782545 1.38124144 0.112285383 
0.24645634 3.15776491 -0.395323396 
0.276890606 0.609339833 1.21939731 
0.802563071 3.70200825 0.0439199135 
0.219455644 5.66390705 -0.763067186 
0.242855251 2.35146809 -0.788394094 
0.148406416 2.40031362 0.778358817 
0.941747725 2.01225877 -0.442096591 
1.27206182 5.37430239 0.354614377 
-0.472468674 4.4249177 1.12874758 
1.27530456 1.46109688 0.150284588 
0.266198397 5.66391802 -0.234949812 
0.527656198 5.41276169 -1.1961441 
0.0731475204 3.07913971 0.431984007 
-1.29220819 1.36705029 0.280985624 
1.20522881 0.596245885 -0.29113245 
-0.146237448 3.29921246 0.520555377 
-0.168607011 3.35438228 0.552425683 
-0.268559247 0.385416061 0.752272785 
-1.18774676 4.92698717 0.732273757 
-0.199106634 3.23080993 -0.460226178 
-0.155751303 0.388995409 -0.840636611 
0.0368415304 4.36267614 -1.17945862 
-0.150156066 4.48889875 1.22626495 
0.377653092 3.45742702 -0.536751091 
-1.19745064 4.41958809 -0.127142742 
-1.21274853 5.49436378 -0.214670032 
-1.0135318 4.05866337 -0.0153754679 
0.938254356 3.95880556 0.239284113 
-0.724424839 3.68037415 0.34510836 
-0.423078418 3.16151714 -0.194592133 
1.17057252 4.64085388 -0.602949023 
0.0149452994 0.671768069 -1.2947576 
-0.46207273 5.66391659 0.528125465 
-1.17675662 4.55656624 -0.505450606 
-0.31978035 2.11353207 0.921334028 
-0.661468744 2.58832717 0.0118913455 
-0.609697163 4.75382328 1.20560777 
-0.88060981 4.04556799 0.542852163 
1.05899262 4.82772446 0.88876456 
1.11216497 5.52301788 -0.470141947 
0.362085819 5.22842979 1.32429671 
-0.181072921 0.384450614 0.683908939 
0.162943244 4.28499985 -1.12822855 
-0.8976686 1.13806605 -1.07983112 
0.117726192 0.500832081 1.10949039 
-0.880662322 2.03310728 -0.5437029 
-0.799307585 3.90954542 0.516745567 
-0.0427744761 2.50395656 0.717846036 
0.191349149 0.393695652 0.8634606 
-1.12638974 5.12215948 0.853029132 
1.17169523 0.536245644 0.0456324853 
-0.694364488 1.91879547 -0.854085505 
-0.593787789 2.66659808 0.171313331 
-1.36473083 0.989547014 0.119040862 
0.307125807 0.384435952 -0.257390201 
1.35179782 4.98890686 -0.296548784 
-0.773319304 1.49721622 1.04959869 
0.326108932 2.65632367 0.546989799 
-1.02968574 5.64254045 0.0229663514 
0.352768958 0.387391865 -0.752539098 
0.805706024 0.47944057 -0.765463352 
-0.434121996 5.66391611 0.510388434 
1.31487191 5.39114332 0.0594724976 
-1.36202562 0.909442902 -0.198664159 
-1.21638703 5.18063927 0.695162416 
-0.465962946 2.61209416 -0.487621248 
0.966149807 1.89907146 0.536962211 
-1.08901453 1.77269101 0.406278133 
0.759495795 1.62710857 0.994846106 
-0.000829861499 0.386069596 -0.803802192 
-0.697797 0.384448886 0.0705150813 
-0.632011294 2.63005877 0.0540207177 
-0.772546589 3.88009214 -0.526025236 
-0.723392069 2.07708097 0.71267873 
-1.23204827 1.43663216 -0.430962205 
-0.353575736 4.22393417 -1.06327713 
0.0332728997 5.66391706 0.239146054 
-0.681351125 4.38970566 -1.0089618 
0.695299983 2.52347851 0.158046708 
0.326197356 3.86493492 -0.855377436 
-0.141315043 4.72750235 1.31149483 
-0.76875174 4.31031513 0.89760077 
0.432198107 5.20381927 -1.31158233 
-0.513513744 1.63935304 -1.12218714 
0.621792436 5.66369581 -0.594009876 
0.25450772 2.24169159 -0.857473552 
1.11705542 5.5842123 0.119894236 
1.27931333 1.40337706 -0.282660276 
-0.454241604 2.87889552 -0.169799685 
0.792459309 0.979224682 1.16820037 
0.0959190279 2.57731295 -0.666484416 
-0.785367846 1.28964937 -1.12416172 
1.1759156 0.603440166 0.429913312 
0.886265457 2.07313824 0.4812105 
0.230027318 2.21001077 0.884113669 
-0.123897687 0.384437263 -0.59509939 
-0.405234337 3.95907998 0.887012482 
1.00130367 0.456481099 0.326966643 
-0.250076622 2.18209076 -0.89720726 
1.10403085 1.82314861 0.243505925 
-0.412345022 5.64436483 0.932845592 
-0.771072388 3.7374568 -0.324610412 
0.78593868 4.68888855 1.08581197 
-1.22316229 0.604589462 0.220102593 
-0.218469739 4.03011084 -0.984593689 
0.193750709 5.66391563 -0.59651649 
-1.34153342 1.278072 0.107288234 
-0.27312097 0.384437442 -0.578675747 
1.33819795 1.18344796 -0.282699019 
0.0744995698 1.310076 1.32673466 
0.919888973 1.02642643 -1.07703102 
1.16961229 4.34244728 0.0494238622 
-1.2759577 1.47906017 -0.03020503 
0.54212147 0.531228006 1.0518713 
0.684198439 1.99464321 0.808579445 
-0.138728157 2.04736257 -0.995497048 
0.421021223 5.33084297 1.27748489 
-0.975415945 4.04178238 0.292415738 
-0.320598662 2.64084268 0.561613083 
-1.03146863 4.3258872 -0.58128655 
0.304065943 5.66391325 -0.312560409 
1.21792245 1.24542499 0.62703836 
0.0916629881 2.13702536 -0.946684062 
-0.688951969 3.91797495 -0.677657366 
1.02356374 2.01044536 0.0801724419 
-0.451627314 3.59225988 0.59913218 
0.874182045 3.93325734 0.39601168 
-1.3108077 4.74916363 0.233972192 
0.92930305 2.11959863 0.276266634 
-0.371462107 0.777409494 1.30145025 
0.795854449 1.0837326 -1.16043067 
1.24994898 1.02111483 -0.639653325 
0.0908400565 1.84226763 1.11110699 
1.1116569 4.24299145 -0.121693924 
-0.309712917 0.471627235 -1.03639483 
0.787400365 4.73025846 1.10066068 
-0.793487549 0.385909021 -0.191737473 
0.351985276 5.6639185 -0.0536894351 
0.126716599 5.66391659 -0.391134739 
1.19359088 0.566024423 0.150001824 
-0.299028128 0.384438097 -0.00867101829 
-0.799837828 1.96923101 0.715368807 
-1.32852602 0.724827766 0.075497441 
0.538702548 1.0425303 -1.29074717 
-0.382834524 3.14631367 0.25859493 
0.542106628 1.77879357 -1.0316546 
0.785870731 1.1558342 1.15543246 
1.02130294 0.88474071 -0.976301849 
-0.314715773 2.13072014 0.912085891 
1.08307493 4.18242884 -0.0776923597 
0.76818496 4.09466982 0.741751969 
-0.431349397 3.11827397 -0.124757625 
0.67923063 0.443175018 -0.783922911 
0.158915013 5.12620068 1.36407721 
-0.09592399 0.915933132 1.36404026 
1.36458945 5.14330864 0.100979909 
-1.29871666 4.64790249 0.0343564674 
-0.25394541 5.6639185 0.372472972 
0.0450868644 5.66374969 0.852566957 
0.687569618 5.47544384 1.06141043 
1.3466872 0.760457933 -0.042343881 
-0.355142653 4.98119497 1.33602846 
0.546751976 0.559871197 -1.08659947 
0.649742603 0.384446889 0.243585885 
-0.00537408236 3.45188427 -0.636975229 
-0.94267571 1.60554028 -0.841334164 
0.221775562 0.519470632 1.12832975 
-1.00988281 4.46491814 -0.745464802 
-0.171660841 3.59864378 0.719972849 
0.908708453 0.414505243 0.297935545 
-0.881129742 2.14283752 0.384230077 
0.606568694 2.65912437 -0.127154097 
0.315626085 3.19440746 -0.369402438 
0.651540041 3.47814512 0.0782026574 
0.473411798 3.56494927 0.556690276 
-1.1993444 0.570425093 -0.146475941 
1.32076752 4.84524679 0.311323047 
1.10120988 4.45710516 -0.574237585 
0.353427917 2.01539135 0.969398737 
0.0909810513 3.759902 -0.835967183 
0.150421172 4.71341228 1.30771255 
-1.03889894 1.33393586 0.883505285 
-0.480425179 5.09532356 -1.3093257 
0.0552716404 2.02188826 1.01869369 
0.376579106 0.498852789 1.06502223 
0.657547772 0.589436173 1.06520247 
-0.319967866 5.66391611 -0.65037775 
1.33883691 1.17485678 0.288469315 
0.00516138738 2.99961257 0.436296642 
-0.887096703 0.753921866 -1.04361057 
-0.222416967 5.66391659 0.431138039 
0.861126661 0.448091626 -0.592429399 
1.35898221 4.89517784 0.104359299 
-1.14606595 4.67431545 0.676043391 
-1.29072154 1.29654026 0.38853544 
1.3526684 0.829226851 0.200876817 
0.471567631 5.66391611 -0.346735328 
0.982764721 4.29701233 0.638876677 
-0.192273453 2.31013227 0.827231705 
0.391448855 5.31404114 1.29247785 
-0.244104385 1.33600295 1.30505085 
1.21895504 0.591875255 0.163323641 
-1.36263382 4.90327978 0.0687241256 
-0.124618411 1.23584533 1.34367013 
-0.395638943 3.94461346 0.881479561 
-1.24288094 1.38740563 -0.448417038 
0.197029546 0.958639503 -1.3637048 
-0.607848048 5.6175828 -0.897852361 
1.36475348 0.991169155 0.108439252 
0.899587154 3.92643952 -0.31367889 
-0.914547861 2.09165144 -0.383018136 
0.269883394 5.25895834 1.33645499 
0.754172623 4.88473034 1.16851783 
-0.444417179 2.22452712 0.799172461 
0.0662687793 1.2913022 1.33246613 
-1.0686729 4.76239204 -0.847791195 
0.401097655 3.09630537 -0.189976603 
-0.278515577 0.384434998 0.547266603 
-0.624348402 2.57893419 -0.277613163 
0.352543831 3.75076675 -0.769462228 
1.08422554 4.39071083 -0.540253103 
0.652293801 1.06952477 1.23943388 
-1.00215173 5.442698 0.820887387 
0.515111327 0.384777844 -0.575508893 
0.442086875 4.9703598 1.31227434 
-0.991454959 5.63883352 0.291014075 
-1.30967546 1.31668186 0.256205976 
1.07797921 1.87849772 -0.224055082 
-0.181644112 5.66391468 -0.128224492 
-1.18729198 4.70826817 0.616355062 
-0.625150681 4.53958464 1.11675572 
-0.408153981 2.87021017 -0.284066319 
-1.1041255 1.85276794 0.123858705 
-0.0749616474 3.09487557 -0.435354441 
1.27423573 1.12426353 0.551285207 
0.50529182 3.25855303 -0.0981107354 
0.12976858 0.812371314 1.35212767 
-0.376438916 5.66391802 0.639990866 
1.13366783 1.51183641 -0.610387623 
-1.36412454 0.966627717 -0.181194305 
1.35196614 5.30172729 -0.110969558 
-0.836879432 2.27461576 -0.24976483 
-0.421711445 0.783721864 1.29127026 
0.641584396 1.59425628 -1.08613598 
0.670574427 2.56678963 -0.128004178 
-1.0217092 1.39646435 -0.873835802 
-0.527115583 5.13472795 -1.29449832 
-1.00473523 0.449611008 0.255776942 
-1.11778069 5.4636755 -0.601391435 
-0.513309896 1.50499189 1.17724824 
-0.178346604 2.50801492 -0.701953709 
1.25506723 5.00047255 0.617970049 
1.36433744 4.97742558 0.0551215 
-1.33723521 0.745594025 0.0894037634 
0.32869041 1.78335214 1.10500479 
-0.927762687 4.1290803 -0.552819371 
-0.776768088 0.403914928 -0.496130168 
0.971791804 4.94359493 -1.01861393 
-0.552399933 2.41093683 -0.588459611 
0.878532767 3.95191216 0.41440022 
-0.0105568776 2.73287225 -0.565078735 
-0.941546977 1.654109 0.808484495 
-0.243944988 5.49407911 -1.20875084 
0.0698757023 5.66380167 0.839510083 
0.787544727 1.18218994 1.14905763 
-1.20426369 4.57160759 -0.436952114 
0.386612833 4.65962458 1.24973345 
0.97095269 0.893626869 -1.02773476 
-0.755581081 5.66151524 -0.552498102 
-1.18420506 0.602122426 0.397157609 
-1.2407074 4.85933352 -0.596149981 
0.902036071 3.86889887 -0.0914487392 
-0.227917686 4.47238731 1.21096551 
-1.11863983 1.8290813 0.0380195938 
1.21181691 4.50316572 0.29858911 
0.26448828 1.59294927 -1.20968783 
0.0507244915 1.09300244 1.36429 
0.970274448 3.97964287 0.0790449828 
0.449798375 1.52203488 1.1944592 
-0.638010144 3.66705275 -0.484807134 
0.992141485 5.4012599 0.879064143 
-1.05237794 5.63173294 -0.0361709073 
-0.715266168 3.75289249 0.466529369 
